ncols 227
nrows 32
xllcenter 493098
yllcenter 4171540
cellsize 50
nodata_value -9999
1361.25732422 1362.71533203 1367.61340332 1370 1375.24182129 1380 1382.63220215 1388.22717285 1392.38220215 1398.32702637 1408.95471191 1413.05859375 1419.61743164 1427.36865234 1431.23425293 1434.51672363 1438.2010498 1441.94494629 1448.02868652 1451.13818359 1452.7010498 1458.66125488 1464.71386719 1470.94787598 1471.42993164 1477.0065918 1480.86083984 1482.10583496 1488.25415039 1489.1697998 1494.78771973 1501.66149902 1506.09033203 1514.39294434 1518.66149902 1527.62976074 1531.2578125 1535.4921875 1539.05615234 1544.27880859 1548.63513184 1551.95458984 1555.60754395 1555.82470703 1560 1563.2824707 1566.04724121 1572.53100586 1584.37329102 1591.53820801 1595.9486084 1601.80944824 1607.97680664 1612.81677246 1616.01037598 1615.11962891 1617.90808105 1621.69116211 1637.50415039 1641.99157715 1644.20019531 1651.57067871 1659.20690918 1664.43408203 1670.07897949 1677.55444336 1682.3404541 1691.84338379 1698.16967773 1707.76306152 1719.12731934 1725.57873535 1727.80480957 1730.57043457 1734.84655762 1747.53149414 1755.19689941 1750.49951172 1744.24914551 1742.35888672 1742.63769531 1748.28503418 1754.92834473 1762.22045898 1765.83435059 1770 1775.15625 1782.03930664 1789.25537109 1797.64050293 1807.66931152 1813.60021973 1815.8470459 1822.45288086 1827.81848145 1846.64233398 1860 1877.37341309 1895.90039062 1927.33203125 1935.08947754 1947.6739502 1957.68200684 1959.64306641 1967.57312012 1974.84143066 1974.93933105 1980.38574219 1992.40637207 1997.30944824 2004.65454102 2005.68310547 2013.52575684 2014.96350098 2020.12683105 2025.05041504 2032.88671875 2035.17126465 2037.58374023 2039.34289551 2046.14611816 2045.16149902 2049.80737305 2052.26831055 2039.9251709 2034.91845703 2032.11816406 2027.49316406 2025.02172852 2024.8894043 2025.24719238 2022.46081543 2012.53662109 2000.24304199 1999.20983887 1995.3885498 1992.36877441 1985.63989258 1984.4786377 1975.1628418 1967.71838379 1957.60766602 1960.07434082 1973.30053711 1975.5949707 1973.54760742 1965.73083496 1967.9041748 1972.53991699 1980.34997559 1987.37475586 1990 1992.16845703 1988.91638184 1988.24267578 1984.90539551 1969.96899414 1955.11071777 1939.77514648 1920.09216309 1903.42077637 1910.13012695 1915.27478027 1915.06811523 1912.7322998 1915.43725586 1917.55212402 1925.17358398 1925.13464355 1932.37597656 1934.81188965 1925.37597656 1917.30908203 1909.9576416 1902.63647461 1902.48364258 1907.71679688 1902.74169922 1892.8651123 1885.08850098 1879.96374512 1870.31799316 1860.44482422 1855.05249023 1850.10766602 1845.19702148 1849.82775879 1854.93798828 1852.65307617 1840.06958008 1835.1550293 1835.06848145 1820.09790039 1807.75695801 1794.95373535 1787.29699707 1780.00549316 1767.61633301 1762.73132324 1755.0982666 1737.88952637 1727.83361816 1722.57629395 1714.84216309 1705.1751709 1694.81201172 1672.57202148 1651.56066895 1600.19421387 1575.2166748 1580.01647949 1592.27062988 1594.97631836 1602.23632812 1607.87890625 1587.5012207 1580.07556152 1599.68591309 1590.23510742 1570.64477539 1550.26171875 1542.76147461 1530.19921875 1502.93933105 1482.0604248 1447.53222656 1415.24438477
1354.53112793 1355.55114746 1362.39916992 1370 1375.48010254 1380 1380 1382.32714844 1387.93432617 1392.85742188 1401.98168945 1409.05639648 1413.12121582 1420.4942627 1424.81982422 1428.0234375 1431.9831543 1437.83825684 1441.93249512 1447.75488281 1451.34667969 1454.64733887 1458.23034668 1464.55957031 1468.35974121 1474.59765625 1480 1481.06640625 1482.56982422 1487.97546387 1492.20129395 1499.66552734 1502.65600586 1511.36950684 1517.46398926 1524.02392578 1528.4185791 1534.52758789 1538.61120605 1541.98046875 1544.18615723 1548.72192383 1550 1550 1555.17614746 1561.70935059 1566.14599609 1571.72973633 1582.32067871 1591.03405762 1592.60229492 1598.32861328 1602.60375977 1608.58752441 1611.65869141 1611.32971191 1616.18994141 1618.57006836 1627.83007812 1634.73986816 1637.88171387 1645.00305176 1652.28430176 1658.30554199 1664.51965332 1668.37963867 1677.60107422 1682.72375488 1695.22033691 1702.19445801 1710.62890625 1717.93676758 1721.54907227 1724.15563965 1727.56689453 1731.50878906 1735.12841797 1735.24841309 1735.1048584 1735.82897949 1737.79919434 1742.22875977 1744.84057617 1750.63366699 1758.3392334 1762.46838379 1765.38464355 1770.24768066 1779.96154785 1787.75476074 1795.11645508 1801.81726074 1806.3503418 1814.89501953 1818.27636719 1840.36706543 1859.21472168 1870.1307373 1884.94348145 1909.83557129 1924.85595703 1932.68432617 1935.10473633 1933.56066895 1945.08215332 1952.55981445 1955.09069824 1965.3170166 1982.29467773 1985.06640625 1989.69750977 1998.12084961 1997.61401367 2002.2512207 2004.82214355 2009.65930176 2014.89001465 2019.73144531 2022.08618164 2024.49597168 2025.10791016 2025.34362793 2032.41491699 2030.17553711 2022.28137207 2015.14990234 2010.11547852 2005.02185059 2004.92724609 2004.93896484 2004.90222168 2004.91821289 1997.52636719 1985.34033203 1980.28662109 1975.07897949 1977.67028809 1974.52111816 1974.59997559 1960.93920898 1959.43811035 1942.53601074 1952.45935059 1962.40234375 1965.02099609 1961.13171387 1961.71850586 1964.12145996 1971.66503906 1972.6427002 1975.34509277 1977.51159668 1982.82275391 1977.84521484 1975.60949707 1965.20031738 1950 1935.24963379 1917.85180664 1905.43457031 1890.11975098 1897.6385498 1902.20568848 1899.55163574 1895.01867676 1899.3182373 1898.06140137 1902.94909668 1914.89013672 1917.35705566 1913.4822998 1910.45031738 1900.4876709 1895.26538086 1890.37316895 1887.3807373 1895.62353516 1890.27294922 1880.32373047 1870.57800293 1865.17785645 1859.59802246 1847.48449707 1840.03466797 1834.88916016 1834.80969238 1835.03039551 1841.71777344 1832.75341797 1825.07836914 1819.82446289 1817.17126465 1800.20068359 1790.50939941 1780.17297363 1767.42822266 1750.42919922 1744.58239746 1739.79919434 1735.12280273 1732.69506836 1717.74731445 1714.74487305 1709.9440918 1702.34448242 1694.94909668 1675.36450195 1657.56237793 1624.3873291 1582.72155762 1559.7755127 1563.17199707 1568.12890625 1567.46777344 1584.75244141 1580.11645508 1567.39807129 1582.64746094 1580.31713867 1565.01208496 1545.14953613 1528.02416992 1524.91833496 1513.27307129 1485.26733398 1454.80419922 1417.10241699
1345.57263184 1347.72766113 1352.56738281 1364.75488281 1371.81811523 1372.10461426 1372.3873291 1378.34448242 1382.1739502 1389.43798828 1396.91845703 1402.37597656 1409.91662598 1414.34643555 1417.74414062 1422.39123535 1428.11608887 1431.41162109 1437.49194336 1441.87524414 1447.60559082 1450.06726074 1454.96179199 1461.80871582 1468.0546875 1471.97021484 1477.85754395 1480.64611816 1481.28259277 1485.66650391 1490.30151367 1496.88085938 1500.52844238 1507.59802246 1513.90710449 1521.56542969 1527.85400391 1531.76477051 1536.46716309 1541.06970215 1541.83605957 1544.24841309 1547.56225586 1548.54016113 1554.10534668 1558.70214844 1565.01696777 1568.83898926 1577.94494629 1582.6829834 1589.37036133 1592.3861084 1598.50866699 1602.00158691 1603.984375 1607.54040527 1611.6685791 1615.94543457 1618.94189453 1627.57641602 1631.97961426 1639.74230957 1648.72607422 1654.58483887 1660.22766113 1665.7512207 1672.2878418 1678.29956055 1687.81994629 1697.94628906 1705.2467041 1711.80310059 1717.72839355 1718.7791748 1721.453125 1724.62268066 1726.50415039 1726.74780273 1728.66479492 1730 1730 1735.43359375 1738.46618652 1745.5880127 1751.97851562 1754.86376953 1757.54797363 1764.99389648 1772.02954102 1777.66625977 1782.39624023 1789.92944336 1798.06103516 1807.6451416 1817.60339355 1832.56286621 1847.7376709 1864.78430176 1875.28637695 1893.66687012 1900.10009766 1907.94262695 1910.30200195 1917.42565918 1922.90979004 1929.94421387 1934.95214844 1952.47668457 1962.75012207 1967.58703613 1970.30578613 1984.10791016 1985.36010742 1985.11669922 1985.09643555 1992.22851562 1995.20166016 1997.86413574 1997.69909668 2004.69897461 2007.19018555 2000.09606934 2005.06689453 2010.18103027 2007.89978027 2004.5111084 1994.5802002 1986.98901367 1986.84387207 1985.43066406 1987.24316406 1984.88476562 1979.11669922 1967.86535645 1962.90856934 1957.68127441 1964.9901123 1960.34326172 1955.10559082 1952.27355957 1948.09326172 1940 1945.51037598 1947.88452148 1952.14794922 1954.39086914 1957.12487793 1960 1970 1968.20703125 1965.34521484 1966.70410156 1964.98742676 1965.09387207 1970.09716797 1950.2722168 1930.92358398 1918.20703125 1900.58496094 1888.70581055 1874.89538574 1879.37121582 1877.41943359 1875.13500977 1875.13537598 1880.47387695 1884.6628418 1885.1295166 1889.7611084 1895.10778809 1895.06958008 1890.49206543 1885.15686035 1884.82446289 1875.08349609 1865.45068359 1873.13146973 1875.35107422 1869.97009277 1859.80505371 1850.08154297 1840.41394043 1832.63330078 1824.89746094 1822.14538574 1822.15905762 1815.30773926 1822.54553223 1824.99438477 1817.59985352 1805.01257324 1797.35339355 1789.54919434 1774.76489258 1765.05480957 1750.44519043 1739.73925781 1720.37060547 1705.16870117 1719.70898438 1719.84667969 1714.78649902 1702.24462891 1695.89404297 1692.87402344 1687.86816406 1674.99768066 1659.96398926 1640.26672363 1604.90698242 1557.55334473 1534.6204834 1535.0135498 1542.2097168 1544.69567871 1557.54064941 1557.3951416 1559.84887695 1567.39050293 1550.17871094 1535.0291748 1517.71875 1500.09960938 1495.1920166 1483.50158691 1458.76477051 1424.32641602
1338.47338867 1341.82104492 1347.72180176 1352.28076172 1359.9888916 1364.17810059 1368.19067383 1371.94311523 1377.72009277 1382.26977539 1392.16662598 1401.46057129 1404.68347168 1407.60888672 1413.98608398 1418.56896973 1423.8449707 1430 1433.92272949 1438.02319336 1443.57788086 1448.12255859 1454.23278809 1458.55810547 1467.83251953 1471.03466797 1472.15124512 1477.20141602 1479.32653809 1481.98144531 1487.87255859 1491.99438477 1498.04260254 1501.31530762 1506.48925781 1518.05395508 1524.76135254 1531.00927734 1532.18005371 1535.40124512 1536.14221191 1538.51782227 1541.58483887 1546.45410156 1553.25964355 1556.40771484 1561.78857422 1566.38244629 1572.17297363 1577.88525391 1585.39758301 1591.2142334 1592.83789062 1595.84924316 1598.52880859 1604.25927734 1608.80407715 1611.70983887 1617.86938477 1618.82873535 1624.51977539 1632.10803223 1643.91052246 1650.14355469 1655.5657959 1664.80371094 1670.00622559 1675.87805176 1685.09240723 1694.87731934 1701.81225586 1707.72631836 1711.74975586 1715.37353516 1718.60717773 1720 1721.85217285 1723.89990234 1724.07629395 1724.70581055 1724.20471191 1728.95361328 1732.8125 1738.34326172 1744.46630859 1747.53796387 1752.30371094 1759.97180176 1764.63195801 1767.84484863 1774.53686523 1780.83654785 1792.12475586 1802.15576172 1812.40588379 1825.0378418 1839.86181641 1855.16345215 1870 1872.38793945 1879.81018066 1885.0703125 1892.83911133 1904.37487793 1910 1912.22436523 1920 1932.49890137 1945.14440918 1954.78918457 1957.62268066 1965.11181641 1967.68383789 1972.29101562 1974.57275391 1972.14245605 1974.91589355 1982.28894043 1984.74816895 1985.16821289 1987.16882324 1977.50561523 1974.86938477 1987.79711914 1987.48266602 1982.53845215 1974.93774414 1962.52038574 1964.85949707 1967.69348145 1966.26721191 1966.02099609 1962.32006836 1956.19360352 1946.89978027 1944.74108887 1945.38867188 1948.14562988 1945.50097656 1945.23999023 1942.11096191 1937.6776123 1935.67211914 1941.83679199 1945.39562988 1945.34216309 1952.50183105 1960 1964.75683594 1968.09509277 1960 1954.71203613 1954.40185547 1948.01428223 1950 1935.81286621 1918.0715332 1900.5435791 1889.71081543 1875.19897461 1865.17285156 1857.69335938 1855.3572998 1854.92382812 1855.17944336 1860.34399414 1865.0513916 1867.3190918 1875.30224609 1875.30773926 1874.82873535 1870.72802734 1865.1385498 1864.92333984 1865.04077148 1854.83959961 1854.95898438 1857.74267578 1847.46826172 1842.61010742 1837.38891602 1830.06176758 1824.97302246 1810.29467773 1804.96728516 1804.96411133 1802.24951172 1814.98803711 1817.44396973 1815.15063477 1795.01281738 1780.09790039 1767.51342773 1750.02478027 1740.52819824 1730.0670166 1720.14208984 1707.68933105 1694.84619141 1694.94458008 1695.21899414 1702.14941406 1697.75537109 1690 1688.10021973 1682.40368652 1670.17822266 1650.28955078 1635.63696289 1619.52697754 1582.52661133 1550.17175293 1524.76879883 1515.14147949 1510.06567383 1517.5637207 1534.73876953 1534.75610352 1548.9744873 1533.30175781 1520.30822754 1508.78161621 1490.23730469 1477.77893066 1474.9230957 1452.84338379 1425.11560059
1334.96203613 1337.90002441 1338.81347656 1344.42626953 1348.48059082 1357.44372559 1360.81359863 1365.05407715 1371.72253418 1377.88000488 1387.61279297 1392.29064941 1395.28515625 1404.31396484 1411.47668457 1418.00830078 1424.1282959 1428.31115723 1435.40478516 1438.2779541 1441.70007324 1445.89990234 1451.64477539 1454.68652344 1461.95141602 1465.08483887 1467.95751953 1471.59802246 1475.14929199 1479.80566406 1485.57299805 1491.13330078 1494.48181152 1498.53820801 1501.86779785 1513.0612793 1521.57275391 1525.99755859 1528.63171387 1531.24182129 1533.2467041 1537.23754883 1541.8996582 1545.99987793 1553.10864258 1556.47851562 1561.10839844 1562.41882324 1568.23730469 1574.46289062 1580.17077637 1587.52514648 1590.18701172 1591.68823242 1597.47692871 1601.54699707 1607.5098877 1608.92321777 1611.71716309 1614.63098145 1618.30859375 1627.61230469 1638.70373535 1645.50378418 1654.43823242 1660.15368652 1666.17602539 1672.56860352 1682.32519531 1689.43676758 1697.55224609 1701.80554199 1708.71862793 1711.53210449 1714.56872559 1715.52966309 1716.61877441 1716.33044434 1716.09887695 1715.22766113 1717.55175781 1724.12609863 1729.48449707 1732.17492676 1735.26245117 1741.76257324 1747.89147949 1754.26342773 1757.67578125 1764.22961426 1771.6661377 1777.7421875 1787.79516602 1799.37634277 1807.66650391 1820 1832.36767578 1849.78405762 1855.08679199 1857.73168945 1867.43530273 1872.53112793 1882.12548828 1885.2401123 1894.91357422 1897.52648926 1904.75891113 1915.09985352 1927.40881348 1939.57983398 1945.08105469 1952.41174316 1955.43896484 1957.7232666 1956.84106445 1960.09558105 1964.65856934 1967.58605957 1974.57897949 1974.859375 1970.44970703 1962.38916016 1957.55236816 1955.09875488 1965.15380859 1962.34362793 1955.13293457 1950 1952.50720215 1955.25805664 1961.63049316 1961.58874512 1950.83508301 1942.76062012 1937.54040527 1934.51782227 1937.80944824 1940 1935.33837891 1935.4230957 1935.68127441 1930 1930 1937.6484375 1940 1940 1955.05432129 1962.51013184 1969.34777832 1982.64562988 1965.20532227 1947.86682129 1941.23425293 1937.70092773 1933.69445801 1921.74743652 1909.42626953 1890.77893066 1877.7512207 1867.5489502 1859.49829102 1847.68005371 1845.20178223 1844.73876953 1844.81652832 1844.93920898 1845.24609375 1849.95983887 1854.78479004 1855.18322754 1855.19787598 1850.89538574 1845.19604492 1845.33557129 1845.30395508 1840.21496582 1835.24987793 1835.24682617 1827.59680176 1822.77404785 1815.30895996 1805.46203613 1805.56030273 1795.17224121 1789.7479248 1785.0949707 1782.23974609 1794.6706543 1797.54943848 1792.97558594 1774.98022461 1757.7064209 1750.39172363 1734.47119141 1722.57543945 1708.96643066 1704.84594727 1690.56005859 1677.84973145 1676.91394043 1675.25 1682.53051758 1685.44372559 1684.44714355 1681.91308594 1672.48864746 1659.69824219 1644.54492188 1632.3203125 1622.47717285 1605.46179199 1575.9901123 1552.88122559 1524.81152344 1497.42321777 1494.64355469 1494.02661133 1507.35595703 1530.71850586 1520.00488281 1509.80383301 1490.73266602 1482.56958008 1465.68151855 1455.19555664 1449.67407227 1427.4510498
1330.59509277 1331.89660645 1337.81469727 1341.53710938 1342.88244629 1350.25036621 1357.21679688 1360 1365.86328125 1372.70007324 1378.11364746 1382.33361816 1387.4317627 1397.88989258 1407.87658691 1415.07666016 1422.3503418 1430 1432.19189453 1435.88745117 1436.41748047 1438.63317871 1442.34655762 1448.22119141 1452.12524414 1457.66674805 1462.11401367 1468.65405273 1471.64501953 1477.34863281 1482.56384277 1488.12084961 1493.14990234 1496.47680664 1503.89001465 1510.2590332 1517.89318848 1521.47229004 1524.84460449 1527.94909668 1530 1534.9173584 1540 1546.05639648 1551.24194336 1553.234375 1558.6282959 1560 1565.68188477 1573.90490723 1578.48266602 1581.93530273 1584.65600586 1587.52880859 1592.21362305 1598.37451172 1601.57104492 1605.10498047 1606.19970703 1608.70605469 1615.36279297 1624.58422852 1634.73242188 1643.99291992 1650.40930176 1655.65222168 1662.11083984 1668.19958496 1675.51464844 1684.45275879 1692.07202148 1700 1702.19934082 1707.91174316 1710.94995117 1711.38171387 1713.64428711 1711.66345215 1711.40197754 1710 1712.04638672 1717.95996094 1724.43188477 1726.06652832 1728.81848145 1732.79455566 1740 1745.09521484 1750.40124512 1759.28662109 1767.54211426 1774.89526367 1787.60327148 1800.17529297 1820 1820 1827.6517334 1835.00061035 1839.66149902 1847.65856934 1850.17553711 1862.67407227 1870 1871.96826172 1882.53979492 1884.73522949 1883.77148438 1895.18640137 1907.04968262 1929.00463867 1934.56115723 1939.90405273 1945.57299805 1948.04870605 1945.828125 1947.82849121 1954.23986816 1954.66943359 1955.29345703 1955.48376465 1955.42431641 1950.12280273 1942.53637695 1940.1640625 1944.72265625 1945.1282959 1945.17150879 1944.29736328 1947.27844238 1948.85852051 1954.49890137 1950.23327637 1942.6027832 1938.17480469 1932.04760742 1930 1932.42626953 1928.0246582 1925.4732666 1925.89587402 1925.51672363 1925.3840332 1924.9083252 1925.22192383 1935.04589844 1937.23742676 1954.81188965 1970 1974.8392334 1992.64282227 1972.50646973 1945.29467773 1937.47875977 1929.48034668 1919.78393555 1905.29492188 1889.97460938 1880.39465332 1870.48657227 1860.29309082 1848.18151855 1842.3190918 1834.75683594 1830.93640137 1828.24951172 1832.05334473 1834.23364258 1834.9362793 1834.85168457 1835.18469238 1835.19128418 1834.99987793 1825.73669434 1825.48620605 1827.20178223 1824.83972168 1819.68310547 1819.98535156 1814.90112305 1804.86877441 1797.59545898 1795.06616211 1787.53271484 1779.88342285 1770.6159668 1765.61547852 1762.51745605 1767.5871582 1775.04431152 1767.72473145 1750.39221191 1735.15673828 1725.38769531 1715.92321777 1702.53894043 1690.31848145 1686.77062988 1677.57763672 1667.63391113 1659.9005127 1657.65026855 1665.08825684 1674.87512207 1670.3692627 1665.20458984 1657.73535156 1642.9519043 1637.42272949 1625.00097656 1614.86450195 1600.66821289 1588.14001465 1566.73254395 1547.59790039 1522.28771973 1489.92358398 1480 1489.77172852 1512.69592285 1510.32080078 1499.53222656 1484.89794922 1470.22009277 1455.11279297 1440.52490234 1434.93847656 1422.64807129
1328.33752441 1330 1335.14868164 1338.8326416 1340 1342.37939453 1351.72094727 1355.25341797 1360.36486816 1365.07910156 1367.56811523 1370 1384.68041992 1395.12976074 1402.36120605 1409.9453125 1417.83776855 1422.30932617 1428.12414551 1431.37438965 1433.51843262 1434.3626709 1437.69104004 1442.49841309 1445.49987793 1450.53186035 1455.20458984 1460.31762695 1467.9354248 1474.24255371 1482.06286621 1487.92529297 1493.82189941 1497.04736328 1501.92004395 1506.52050781 1512.24609375 1518.24401855 1521.1940918 1523.56481934 1528.15441895 1535.2364502 1540 1545.81921387 1550.66040039 1551.57250977 1553.9251709 1558.40039062 1565.47949219 1571.45922852 1573.43115234 1575.74609375 1578.18237305 1579.2097168 1591.25415039 1592.74072266 1598.29797363 1600.02600098 1603.32885742 1610 1615.25915527 1624.75537109 1634.9597168 1641.52868652 1647.72009277 1650.85852051 1657.9230957 1665.26916504 1672.10595703 1680.30395508 1688.09606934 1694.78918457 1698.1060791 1701.65014648 1704.59545898 1704.9017334 1705.0760498 1705.23950195 1704.60583496 1705.10961914 1708.58081055 1711.91491699 1717.91503906 1721.67456055 1724.80041504 1728.12536621 1734.1373291 1738.01257324 1744.74902344 1752.36767578 1760.39978027 1775.10510254 1787.93078613 1803.15039062 1817.64025879 1817.58496094 1815.20373535 1822.20727539 1832.43029785 1840 1841.99035645 1844.70812988 1845.0769043 1857.36254883 1864.88720703 1864.86242676 1872.40710449 1880.2232666 1895.14660645 1908.05639648 1917.80163574 1927.43334961 1935.18737793 1938.07897949 1940.1159668 1937.83544922 1937.9354248 1940.56152344 1937.84057617 1945.06469727 1944.79882812 1939.65197754 1933.58398438 1932.41711426 1930 1932.43493652 1935.59606934 1938.36340332 1941.71765137 1943.22766113 1944.75524902 1940.64624023 1937.57495117 1932.14990234 1928.02587891 1924.30932617 1917.79602051 1915.36486816 1916.10437012 1917.21154785 1914.55395508 1914.74780273 1915.44799805 1920 1924.94470215 1930.18322754 1954.89013672 1975.30212402 1982.86865234 1990.07849121 1965.29577637 1940.21044922 1929.92956543 1918.22216797 1905.24902344 1895.27758789 1880.73034668 1874.72351074 1862.37768555 1851.17236328 1844.82336426 1831.70043945 1827.71948242 1824.35192871 1821.49645996 1817.67077637 1822.6015625 1822.73095703 1824.70385742 1824.81115723 1820.78100586 1820.25634766 1810.95593262 1814.8034668 1810.74572754 1807.09521484 1805.00305176 1804.9161377 1797.66333008 1789.74291992 1780.37133789 1777.84887695 1772.39819336 1767.47229004 1759.70947266 1754.69787598 1742.75048828 1738.59741211 1744.70080566 1749.55957031 1728.00720215 1717.87597656 1712.79846191 1702.29589844 1689.94189453 1675.08654785 1670.11669922 1660.7376709 1656.78173828 1645.89599609 1644.80541992 1647.4810791 1654.9251709 1654.89562988 1652.46057129 1649.56542969 1635.32702637 1627.64233398 1617.1550293 1600.74768066 1587.36303711 1575.23547363 1557.5526123 1545.52294922 1533.11010742 1507.85144043 1477.62390137 1474.78601074 1490.19213867 1500.37854004 1489.44970703 1470.40649414 1458.99182129 1449.63830566 1433.01245117 1416.87011719 1410.12304688
1326.73815918 1330 1332.69714355 1334.75463867 1337.53198242 1340 1345.29016113 1346.3704834 1351.73962402 1357.65136719 1364.4329834 1370 1382.39453125 1391.70422363 1397.67150879 1401.09008789 1409.75231934 1417.60766602 1420 1421.97497559 1424.69128418 1425.63122559 1424.91503906 1430.16882324 1441.31799316 1444.66040039 1448.39892578 1455.1439209 1465.46826172 1474.61035156 1484.4407959 1490 1492.11425781 1496.67626953 1501.13830566 1504.58093262 1509.94702148 1512.19714355 1517.94824219 1518.69909668 1525.36914062 1534.89990234 1540 1542.65930176 1546.97595215 1548.9855957 1550 1555.43066406 1562.0135498 1568.10778809 1571.54089355 1572.90771484 1576.78564453 1578.84240723 1587.85205078 1591.34765625 1593.69238281 1597.19470215 1600 1608.04223633 1615.84375 1625.55859375 1632.11535645 1638.06896973 1642.02087402 1647.90686035 1653.13342285 1660.40722656 1668.1060791 1675.1484375 1682.0982666 1687.91247559 1691.9420166 1695.12402344 1695.80517578 1697.15600586 1698.71154785 1699.0970459 1699.4786377 1701.29003906 1704.66918945 1708.46020508 1712.02233887 1717.81347656 1720 1724.58508301 1730 1735.96472168 1741.9420166 1748.32873535 1755.44567871 1770.0760498 1780 1795.24914551 1801.92932129 1804.42504883 1807.66638184 1810 1822.53662109 1830 1830 1830 1830 1844.77746582 1847.71325684 1852.30212402 1862.13830566 1874.94348145 1889.60375977 1894.91125488 1904.87817383 1915.04772949 1925.40124512 1925.6505127 1929.86828613 1926.96435547 1925.13452148 1927.95678711 1925.67797852 1924.91784668 1932.21862793 1929.98474121 1923.86328125 1926.7833252 1928.42810059 1928.08898926 1928.28259277 1932.69116211 1940 1940 1938.10583496 1932.68347168 1930.1595459 1927.62719727 1922.21447754 1917.53979492 1908.14648438 1908.16271973 1908.07641602 1904.95617676 1902.19165039 1902.7298584 1905.97827148 1911.18139648 1915.64245605 1919.57409668 1930.38415527 1954.95556641 1972.40319824 1967.62939453 1952.59472656 1932.52514648 1914.94763184 1900.51086426 1890.4486084 1884.79406738 1870.96032715 1864.83093262 1850.75305176 1842.70227051 1838.76062012 1827.80114746 1820.09765625 1810.54516602 1805.20275879 1804.86901855 1805.1484375 1807.23022461 1805.16784668 1809.92724609 1805.55712891 1803.80236816 1800.02050781 1799.14953613 1795.27832031 1795.33288574 1787.54602051 1790.60314941 1784.96337891 1782.23608398 1770.7109375 1765.34606934 1764.91455078 1759.11572266 1749.85656738 1735.22827148 1730.32702637 1720.47888184 1722.74731445 1726.64123535 1719.94543457 1699.9798584 1687.65002441 1684.9284668 1674.77893066 1660.35766602 1654.96032715 1652.02172852 1640.50512695 1632.70593262 1625.43103027 1629.67504883 1634.64282227 1637.45251465 1637.99523926 1635.2052002 1625.00061035 1619.3293457 1600.82226562 1585.42053223 1575.02453613 1564.77966309 1545.02307129 1534.57946777 1524.76599121 1508.04516602 1477.40234375 1470 1477.03210449 1489.86242676 1475.20922852 1460.4375 1445.51147461 1437.35803223 1424.98388672 1405.35668945 1400
1322.11767578 1328.13354492 1330 1331.13244629 1331.82763672 1338.00878906 1341.27612305 1341.86230469 1347.20397949 1355.21887207 1362.39599609 1372.10913086 1377.59631348 1382.47485352 1391.85620117 1397.71130371 1402.45288086 1409.53515625 1413.24572754 1414.49499512 1414.94799805 1414.84338379 1418.11547852 1424.8215332 1437.15270996 1441.5871582 1445.69262695 1452.34680176 1464.36560059 1474.91320801 1483.58325195 1488.44213867 1491.14086914 1492.62866211 1498.20800781 1501.52050781 1507.51391602 1508.88708496 1511.57507324 1517.40112305 1530 1532.69873047 1538.55322266 1541.14685059 1542.33544922 1547.77819824 1548.56018066 1551.76086426 1555.47424316 1562.37304688 1567.53967285 1568.95727539 1571.79064941 1575.89111328 1579.98278809 1584.98925781 1585.55847168 1589.8605957 1597.80664062 1604.63574219 1612.27746582 1619.95605469 1627.41027832 1632.08178711 1641.30004883 1645.22644043 1651.71398926 1657.4699707 1665.34631348 1671.84228516 1677.53039551 1681.80725098 1685.05004883 1688.3894043 1691.28283691 1694.23608398 1695.61181641 1697.76293945 1698.87182617 1699.51965332 1703.31152344 1706.51025391 1711.39709473 1715.94897461 1720 1725.77124023 1730 1735.56787109 1740 1745.296875 1750 1764.77062988 1775.04284668 1784.44787598 1788.5135498 1795.12634277 1801.88745117 1810 1814.85864258 1822.01733398 1828.02978516 1827.95727539 1827.76147461 1832.36547852 1837.7199707 1844.88061523 1854.92358398 1867.48339844 1875.15783691 1875.44396973 1885.16809082 1902.41503906 1907.11621094 1915.41625977 1915.58862305 1915.13183594 1915.36132812 1917.91491699 1915.05419922 1909.8581543 1905.21350098 1909.93200684 1912.18103027 1921.47924805 1922.85070801 1922.01391602 1926.71899414 1928.53845215 1934.53625488 1935.24438477 1931.59313965 1928.78063965 1924.32141113 1920.46179199 1917.93212891 1910.20458984 1902.08850098 1901.91442871 1902.11169434 1897.28369141 1895.609375 1898.25646973 1901.95153809 1901.80004883 1905.39160156 1907.17822266 1912.97412109 1929.95874023 1940.09594727 1940.65368652 1930.0546875 1919.9407959 1901.9888916 1890.74475098 1879.99450684 1872.44226074 1860.23059082 1850.32922363 1837.88110352 1832.69433594 1825.0567627 1820.22265625 1810.84375 1803.62023926 1795.30175781 1794.26501465 1794.57592773 1794.67126465 1785.41125488 1790.51855469 1795.02233887 1790.46777344 1785.38977051 1785.51867676 1785.00012207 1784.73205566 1782.16369629 1772.34423828 1774.70666504 1770.55957031 1762.55908203 1757.78088379 1754.44274902 1749.06945801 1735.09521484 1720.61193848 1715.29333496 1709.69384766 1707.42883301 1705.06347656 1702.37536621 1687.46179199 1677.42431641 1669.96130371 1659.92346191 1647.58825684 1644.80041504 1639.91467285 1632.26647949 1624.50549316 1615.09924316 1615.02807617 1614.9005127 1625.5489502 1623.59338379 1625.14367676 1617.7097168 1610.18029785 1595.02087402 1575.07775879 1565.05822754 1549.95996094 1530.55810547 1510.98583984 1505.20983887 1499.47473145 1477.46582031 1470 1470 1473.3737793 1461.82092285 1454.84851074 1443.62585449 1432.66967773 1423.76879883 1405.42089844 1400
1317.73388672 1322.51831055 1330 1327.87512207 1328.05773926 1331.9934082 1334.70227051 1334.91113281 1344.80993652 1352.0098877 1354.80285645 1359.85571289 1367.9901123 1375.50048828 1385.05578613 1390.31762695 1395.16015625 1399.31213379 1402.58886719 1405.19213867 1408.06591797 1410.23730469 1415.33776855 1425.2902832 1435.18041992 1441.10839844 1445.49377441 1451.87609863 1464.84216309 1474.91101074 1481.46813965 1484.65380859 1485.30895996 1491.08325195 1492.51855469 1498.8347168 1501.55810547 1504.52172852 1510 1515.07885742 1527.71813965 1531.24865723 1532.19665527 1537.6451416 1540.82678223 1541.40661621 1542.4921875 1547.06005859 1550 1561.03515625 1561.98449707 1567.73071289 1569.08032227 1571.82287598 1574.17944336 1575.21789551 1578.35888672 1585.69226074 1592.81347656 1600 1607.3013916 1612.28210449 1620.20471191 1630 1638.32629395 1641.7878418 1648.05993652 1652.0534668 1659.86047363 1665.03063965 1668.46166992 1675.32531738 1679.23864746 1681.97875977 1684.62609863 1688.81359863 1691.14880371 1691.94152832 1697.78503418 1699.16564941 1701.51513672 1706.12658691 1710 1715.0637207 1720 1725.5670166 1730 1735.50378418 1740 1745.70544434 1754.96032715 1765.10778809 1775.3416748 1784.30407715 1790 1795.00891113 1804.15307617 1810 1812.69665527 1816.66223145 1816.7512207 1818.34350586 1821.3527832 1822.39428711 1830.57543945 1837.82043457 1845.3515625 1855.62072754 1864.67980957 1865.60693359 1868.12841797 1880.18762207 1895.0065918 1899.40234375 1906.51940918 1905.18041992 1905.19030762 1904.61999512 1902.29602051 1898.29492188 1895.47106934 1898.4810791 1907.43103027 1908.61633301 1917.64831543 1918.91638184 1921.65612793 1922.44140625 1925.1472168 1926.04638672 1926.07348633 1925.40698242 1921.74804688 1918.14599609 1911.8659668 1905.61132812 1897.93969727 1892.04528809 1888.28259277 1887.95874023 1891.16784668 1892.30053711 1895.53417969 1896.16430664 1896.06542969 1896.1105957 1895.90942383 1901.21850586 1910.52392578 1915.15710449 1909.72290039 1897.30078125 1890.36071777 1882.33776855 1868.20800781 1855.18347168 1840.63867188 1833.7668457 1826.05895996 1825.10961914 1817.96020508 1814.36291504 1806.76660156 1799.45788574 1789.34533691 1780 1782.18322754 1778.11462402 1774.8918457 1775.21948242 1777.21813965 1776.86083984 1774.46533203 1775.45056152 1774.92944336 1774.53137207 1770.08789062 1764.85705566 1763.35498047 1757.87097168 1755.35205078 1746.48400879 1735.37939453 1730.69421387 1725.42736816 1712.81384277 1702.65783691 1694.88806152 1689.78527832 1685.29748535 1684.80615234 1670.56616211 1664.93383789 1659.57067871 1647.73242188 1637.70214844 1632.42504883 1624.52575684 1620.28857422 1613.73547363 1604.68200684 1600 1597.50537109 1608.37353516 1604.59448242 1605.31872559 1605.39697266 1602.64868164 1590.40673828 1570.25012207 1554.75036621 1533.01403809 1518.00512695 1500.60412598 1491.1661377 1485.16064453 1475.28552246 1470 1467.2734375 1463.49023438 1458.47766113 1452.5390625 1445.53540039 1432.83789062 1423.99047852 1410.51293945 1403.00610352
1308.01623535 1312.47314453 1317.68127441 1319.92651367 1322.25170898 1325.30822754 1324.69140625 1327.90222168 1337.76879883 1344.92675781 1344.83581543 1350.69445801 1362.67126465 1372.30664062 1378.03015137 1382.17565918 1385.29992676 1392.1796875 1394.96789551 1400 1402.41516113 1408.49768066 1414.8894043 1425.0098877 1431.94262695 1435.16467285 1442.11950684 1447.93005371 1460.6328125 1472.30334473 1475.82910156 1477.52575684 1475.59057617 1482.39978027 1488.14416504 1492.69970703 1498.68481445 1498.64343262 1510.97729492 1515.56591797 1520 1522.07507324 1527.60424805 1531.59399414 1534.37133789 1532.14135742 1534.8782959 1544.38635254 1550 1555.60864258 1560.99926758 1562.21337891 1565.64489746 1565.7310791 1565.70678711 1567.72912598 1572.68725586 1580 1587.58166504 1594.50878906 1601.96630859 1608.24572754 1615.35119629 1627.94116211 1632.31616211 1637.97363281 1642.46398926 1648.42114258 1654.81958008 1660 1662.53210449 1668.4552002 1672.15991211 1677.8145752 1678.64416504 1682.68933105 1688.55859375 1691.0012207 1695.05578613 1698.61743164 1700.94116211 1704.54846191 1708.77050781 1711.94384766 1718.25219727 1722.40087891 1728.58544922 1732.10693359 1738.39550781 1745.15942383 1755.20043945 1765.07556152 1775.2076416 1783.92663574 1788.54064941 1794.6105957 1800.87927246 1808.26416016 1811.27380371 1813.68493652 1814.06799316 1814.26904297 1815.56091309 1818.54675293 1822.84362793 1828.21606445 1838.0501709 1847.79406738 1852.77905273 1855.93737793 1860 1865.12255859 1877.53857422 1889.73303223 1894.64465332 1894.81506348 1892.49890137 1890 1886.38342285 1889.29907227 1889.79199219 1894.64770508 1901.59863281 1907.59692383 1911.79870605 1915.55432129 1916.34020996 1915.32897949 1918.12036133 1921.63122559 1923.05236816 1921.13024902 1920.69995117 1912.59375 1907.76867676 1902.18847656 1892.27587891 1887.76135254 1881.97436523 1881.71203613 1884.77282715 1884.86206055 1891.17053223 1886.71398926 1893.46862793 1889.11096191 1888.93945312 1893.90551758 1897.95410156 1896.4140625 1894.27514648 1885.31066895 1882.1060791 1872.37634277 1857.61621094 1845.19799805 1834.84912109 1822.51867676 1819.89331055 1817.3848877 1812.08654785 1808.10058594 1799.58398438 1789.96936035 1782.3482666 1774.7956543 1767.42675781 1763.96496582 1762.28979492 1765.00683594 1767.88220215 1768.32543945 1765.55053711 1765.18395996 1762.80163574 1760.51086426 1757.08825684 1752.34558105 1752.26538086 1749.05895996 1742.43347168 1737.4576416 1724.8482666 1722.34973145 1717.77038574 1704.96948242 1689.90332031 1677.96313477 1675.31738281 1674.7232666 1668.03479004 1660.04174805 1652.27087402 1642.56286621 1637.63842773 1629.9375 1617.91589355 1613.08618164 1609.75073242 1605.77636719 1599.66479492 1589.97277832 1584.74609375 1585.58728027 1590.20898438 1590.55981445 1590.70715332 1587.92443848 1577.52709961 1557.57006836 1535.08520508 1520.02197266 1504.94470215 1491.12634277 1485.11120605 1478.14648438 1470 1468.68432617 1464.10595703 1462.80395508 1455.67370605 1451.28808594 1442.47509766 1434.51916504 1424.75097656 1415.45031738 1408.50695801
1302.11328125 1305.5020752 1306.41784668 1308.49938965 1312.45959473 1315.31347656 1317.98522949 1325.76464844 1332.18640137 1334.94799805 1337.26416016 1342.79333496 1355.0189209 1362.60583496 1372.07299805 1374.8137207 1374.75720215 1378.11242676 1387.09643555 1392.49023438 1401.26733398 1405.70410156 1411.95910645 1417.40991211 1427.40002441 1430 1437.78759766 1445.07141113 1455.09851074 1462.73986816 1466.48730469 1468.08618164 1467.84338379 1480 1488.18383789 1491.36755371 1494.06262207 1497.64648438 1510 1512.49316406 1514.76940918 1517.93029785 1522.06799316 1522.34277344 1520 1527.39245605 1532.16040039 1544.19372559 1548.27148438 1550 1554.51062012 1560.85473633 1561.23620605 1561.19824219 1561.07788086 1560 1567.96936035 1575.18347168 1582.29064941 1589.76379395 1597.83740234 1602.29077148 1612.26550293 1622.12756348 1627.61071777 1632.50109863 1639.51611328 1644.41003418 1650.15625 1655.63049316 1661.17175293 1665.2277832 1670 1671.71655273 1677.57128906 1681.70849609 1687.48937988 1690.65332031 1693.34143066 1696.48400879 1699.29760742 1703.6529541 1708.35888672 1711.51245117 1716.20410156 1721.36535645 1726.7956543 1730 1735.63549805 1744.64807129 1765.1517334 1767.8717041 1774.81201172 1779.95861816 1785.49267578 1791.99865723 1797.99133301 1801.93969727 1804.6763916 1805.47546387 1805.56896973 1808.30310059 1811.45397949 1815.36071777 1818.51379395 1822.31921387 1832.52941895 1842.43859863 1846.61303711 1850 1854.06408691 1857.76391602 1865.00292969 1877.29101562 1884.80334473 1879.9375 1875.18225098 1872.17675781 1872.03869629 1879.09484863 1883.94018555 1885.07714844 1892.45776367 1900.28588867 1908.78051758 1911.71826172 1911.68395996 1908.23291016 1905.78271484 1908.04846191 1915.14819336 1914.89428711 1912.43615723 1902.42871094 1897.62780762 1890.63952637 1885.03820801 1877.8269043 1868.45544434 1868.19909668 1873.99133301 1874.50891113 1876.05432129 1875.55969238 1875.34375 1874.89624023 1877.69042969 1887.19665527 1897.75085449 1897.36169434 1887.11828613 1869.49938965 1862.35046387 1857.56726074 1847.84851074 1837.49890137 1825.63574219 1817.97900391 1811.90551758 1805.22167969 1800 1800.47399902 1792.88867188 1782.65795898 1772.31445312 1767.38024902 1759.96386719 1752.38195801 1750.02758789 1746.76550293 1750.03283691 1752.49951172 1747.12976074 1755.04052734 1752.14990234 1745.38439941 1745.04870605 1738.04772949 1737.57495117 1727.40563965 1724.81188965 1715.07299805 1710.45678711 1707.99987793 1705.17749023 1699.31494141 1682.29870605 1672.21276855 1667.71618652 1662.01660156 1659.55407715 1647.63366699 1642.39685059 1632.40393066 1622.50708008 1620 1612.16052246 1603.19750977 1602.41235352 1601.66870117 1595.03967285 1585.0402832 1575.18249512 1569.52722168 1575.29101562 1574.94067383 1570.06787109 1569.52526855 1547.95324707 1532.12231445 1517.1574707 1502.47644043 1488.82702637 1487.16003418 1481.52429199 1476.47155762 1471.42053223 1470 1468.1661377 1463.52294922 1454.9699707 1447.84094238 1435.52600098 1428.15490723 1421.31201172 1415.53344727 1411.03662109
1298.52636719 1300 1301.91113281 1303.8918457 1307.08654785 1310 1312.68908691 1317.83837891 1322.08679199 1324.86645508 1327.34008789 1338.09606934 1349.5559082 1355.26928711 1357.73498535 1364.28881836 1367.58508301 1372.23803711 1377.96643066 1384.85595703 1394.63830566 1401.80126953 1404.9152832 1410.19580078 1424.10180664 1430 1435.94885254 1442.53369141 1455.15905762 1461.52514648 1461.89489746 1460 1462.55432129 1469.98632812 1482.68945312 1485.59289551 1490 1492.55969238 1510 1510 1510 1512.29724121 1518.03723145 1518.16845703 1518.2199707 1524.88293457 1531.90270996 1541.59875488 1544.74938965 1544.14868164 1547.40490723 1548.67785645 1556.00488281 1555.74890137 1557.4395752 1558.43664551 1564.54626465 1568.12011719 1575.08544922 1584.52868652 1594.32080078 1600 1610 1617.91394043 1622.57873535 1628.49682617 1632.21984863 1638.08666992 1643.1328125 1648.4588623 1655.21142578 1661.94067383 1664.71557617 1670 1674.71484375 1680 1685.47790527 1690 1691.51928711 1696.08276367 1699.03369141 1701.57507324 1705.81799316 1708.75390625 1711.95544434 1722.3326416 1725.05334473 1732.19311523 1741.93920898 1750.05102539 1762.3560791 1767.63146973 1770.87695312 1777.6932373 1782.11413574 1788.13806152 1792.14343262 1795.13891602 1794.62194824 1798.06994629 1801.18054199 1803.89343262 1804.4510498 1811.3939209 1814.08056641 1817.45227051 1827.44628906 1841.23657227 1842.07788086 1844.45495605 1847.57519531 1852.45019531 1860 1868.01782227 1869.69287109 1864.81591797 1865.06213379 1864.24230957 1867.42663574 1870 1870 1877.48754883 1887.61376953 1897.74035645 1902.68664551 1902.71008301 1900 1897.76293945 1897.7565918 1899.92480469 1904.24682617 1904.78759766 1900.67346191 1895.32421875 1889.56787109 1880.44689941 1877.7791748 1871.02404785 1862.65441895 1863.94604492 1864.47583008 1865.37695312 1864.96582031 1865.74804688 1867.8203125 1865.35351562 1868.04663086 1894.52709961 1900 1900 1887.93530273 1857.78320312 1852.50488281 1843.71582031 1839.73352051 1829.9362793 1818.25415039 1815.28295898 1807.60949707 1801.89709473 1797.33862305 1794.33251953 1789.04003906 1777.51330566 1768.22729492 1761.77233887 1752.45703125 1747.68493652 1742.17468262 1738.40893555 1735.42712402 1735.02404785 1734.95471191 1741.2791748 1740.04162598 1734.77270508 1730.29858398 1724.81848145 1719.82641602 1714.89538574 1709.36450195 1697.84936523 1702.28991699 1700 1692.42687988 1683.00268555 1670.21838379 1664.76513672 1659.97631836 1652.60925293 1647.57470703 1637.81335449 1632.34289551 1627.69299316 1614.98535156 1602.57519531 1597.90600586 1592.35778809 1592.45532227 1587.82653809 1588.06188965 1580 1569.66027832 1562.35961914 1555.15124512 1555.24926758 1549.69787598 1537.36657715 1527.73840332 1510.03063965 1499.77233887 1489.29309082 1488.14758301 1483.06054688 1479.17529297 1476.18225098 1470 1470 1468.31567383 1462.32336426 1452.20556641 1442.12976074 1432.53088379 1425.29492188 1419.38037109 1415.92163086 1411.25842285
1294.22119141 1294.31530762 1298.04675293 1300 1304.27062988 1308.47424316 1310 1311.87634277 1315.4420166 1315.39941406 1319.90087891 1331.02124023 1342.40917969 1344.53308105 1345.5123291 1352.18273926 1358.02270508 1362.60339355 1364.91247559 1374.40783691 1387.66418457 1394.93286133 1397.38146973 1405.31750488 1418.20825195 1424.31835938 1432.55847168 1437.97851562 1450 1455.4140625 1456.28991699 1457.97131348 1458.97485352 1465.3503418 1472.55029297 1480 1481.94824219 1492.50939941 1501.97790527 1504.96386719 1504.71569824 1507.68847656 1512.52294922 1511.90637207 1515.07873535 1518.74267578 1532.19091797 1536.33886719 1538.29150391 1538.52246094 1543.58984375 1548.19628906 1548.57458496 1550 1551.61279297 1554.98669434 1558.84472656 1564.95117188 1573.77160645 1582.64453125 1595.23706055 1600 1607.88183594 1615.07751465 1621.54455566 1627.21325684 1630 1634.90368652 1640 1645.5423584 1652.07739258 1657.15283203 1661.82543945 1668.43920898 1671.99316406 1680 1684.66491699 1688.44665527 1690.99694824 1692.33728027 1698.02038574 1700.81408691 1701.81396484 1707.32519531 1715.03515625 1730 1735.92565918 1741.44689941 1745.43676758 1751.83984375 1758.45507812 1762.32214355 1768.27929688 1772.60400391 1778.2442627 1782.09558105 1785.14135742 1786.31530762 1790 1791.97741699 1794.09912109 1795.29321289 1797.76159668 1805.82629395 1805.22937012 1805.32958984 1820.1192627 1825.10668945 1835.25109863 1837.78100586 1840 1845.03540039 1854.81408691 1859.85351562 1859.35168457 1849.55334473 1847.73864746 1852.47070312 1857.75549316 1862.11608887 1862.30932617 1868.09777832 1877.81652832 1887.9107666 1894.89660645 1895.08728027 1890 1890 1884.86853027 1887.8972168 1890 1891.99645996 1890.59509277 1883.65576172 1877.82385254 1872.26733398 1869.45910645 1862.47595215 1858.56530762 1855.66625977 1856.0802002 1856.05212402 1858.01464844 1856.39025879 1855.87805176 1858.01452637 1865.03259277 1895.20031738 1900 1900 1885.14587402 1857.69348145 1839.83032227 1830.83618164 1825.078125 1819.85192871 1810.88232422 1805.58361816 1802.37036133 1794.68444824 1791.67138672 1784.55957031 1778.28820801 1772.39978027 1765.30871582 1758.23718262 1750 1740 1738.34216309 1733.98742676 1730 1727.59912109 1725.30895996 1724.2869873 1724.39611816 1720.25134277 1714.80078125 1715.02478027 1704.92443848 1700.13439941 1692.42297363 1685.24926758 1685.1809082 1685.28808594 1678.06518555 1672.47546387 1657.72888184 1647.93920898 1647.67883301 1644.93017578 1642.31994629 1629.99401855 1622.23461914 1615.30725098 1607.55187988 1597.74914551 1588.18994141 1582.57849121 1577.7043457 1575.26538086 1574.53369141 1572.42138672 1564.95483398 1557.63342285 1545.08862305 1537.36877441 1532.28796387 1515.03881836 1504.90539551 1498.10375977 1490 1488.94897461 1484.94433594 1481.41967773 1478.68371582 1475.61743164 1471.29602051 1470 1465.54040527 1455.40722656 1447.86621094 1435.59545898 1430.20324707 1424.07885742 1420 1415.51647949 1413.25012207
1282.19873047 1287.21875 1290.71154785 1294.54626465 1301.44372559 1302.49560547 1304.45666504 1304.99084473 1306.26953125 1305.9699707 1310.51037598 1322.70593262 1332.03686523 1338.04882812 1337.92126465 1342.67163086 1349.48303223 1354.85180664 1357.76086426 1367.77270508 1377.9407959 1382.01989746 1392.38598633 1405.36010742 1410 1420 1427.70483398 1437.6237793 1442.0637207 1451.25927734 1451.54052734 1456.4942627 1460 1465.07995605 1468.59643555 1474.38439941 1480 1492.16918945 1495.38781738 1496.35437012 1498.61584473 1504.55200195 1510 1510 1511.81506348 1517.6439209 1525.0135498 1531.8092041 1533.88659668 1537.50646973 1541.81555176 1543.35949707 1544.41125488 1547.66137695 1550.9041748 1553.74230957 1557.99328613 1564.65551758 1574.62512207 1582.19482422 1590.81604004 1597.87683105 1604.3347168 1612.62145996 1617.42163086 1624.72033691 1630 1635.44458008 1640 1644.98413086 1650 1655.50830078 1661.91430664 1667.71398926 1674.91162109 1680 1681.4666748 1685.33361816 1689.0177002 1691.19641113 1694.90197754 1698.68505859 1700 1702.26818848 1716.46228027 1731.44604492 1735.31713867 1741.80773926 1746.41516113 1751.60876465 1755.8840332 1761.24255371 1765.23242188 1770 1772.48742676 1775.52172852 1778.24230957 1781.79956055 1784.70129395 1782.56689453 1780 1787.40600586 1794.3248291 1800 1797.71520996 1797.74816895 1807.7142334 1815.18334961 1817.98278809 1830 1825.16052246 1827.42944336 1835.13745117 1844.63208008 1845.26269531 1837.42285156 1839.67541504 1844.73937988 1847.76367188 1852.1361084 1857.54504395 1862.64868164 1872.28479004 1875.34033203 1880.09606934 1884.92871094 1882.07946777 1880 1878.05981445 1878.49682617 1879.62060547 1877.78491211 1877.58557129 1869.64538574 1865.30297852 1862.41479492 1857.90563965 1855.74291992 1852.40783691 1852.96398926 1851.35534668 1851.77380371 1850 1850 1849.70715332 1845.78979492 1856.91174316 1879.97607422 1900 1897.25500488 1877.51281738 1853.31555176 1832.84973145 1822.22631836 1817.51965332 1807.65319824 1802.41845703 1801.59094238 1792.24829102 1788.08178711 1782.2644043 1779.0723877 1772.38671875 1770 1762.09020996 1755.16101074 1748.1229248 1740 1735.61376953 1731.40039062 1727.95947266 1722.08569336 1718.09643555 1715.40905762 1714.76843262 1707.6973877 1702.26660156 1694.90869141 1690 1684.89111328 1680.12097168 1674.9387207 1674.75646973 1675.35986328 1672.01428223 1662.68164062 1653.4017334 1642.20385742 1637.96801758 1634.63366699 1632.18066406 1619.68029785 1607.80627441 1604.96337891 1594.84216309 1587.94445801 1582.53674316 1577.7355957 1570.16516113 1564.66125488 1560 1560 1557.54650879 1552.02001953 1540.55944824 1532.5222168 1522.21447754 1510 1504.00891113 1495.03088379 1489.13378906 1487.98999023 1481.66638184 1480.72155762 1476.61633301 1473.27868652 1470.78112793 1468.66137695 1464.78417969 1455.64111328 1445.35571289 1435.09423828 1430 1421.38977051 1419.08959961 1417.91027832 1417.16479492
1272.32409668 1279.30932617 1284.10314941 1291.81396484 1295.3626709 1295.59741211 1295.66235352 1298.05737305 1300 1301.82531738 1305.04516602 1317.77355957 1325.63635254 1327.85644531 1327.93078613 1334.91748047 1339.46936035 1345.08947754 1352.29504395 1360.51525879 1364.86218262 1372.02380371 1387.56408691 1397.39135742 1404.9362793 1417.48583984 1427.6628418 1428.63818359 1438.05187988 1445.14770508 1447.85766602 1454.40905762 1458.86657715 1464.42248535 1470 1475.49108887 1482.02026367 1490 1490 1491.43920898 1497.10803223 1498.67980957 1502.09765625 1502.84924316 1508.30651855 1512.32641602 1518.06591797 1525.24645996 1522.20129395 1535.0020752 1538.20483398 1537.81335449 1541.98608398 1548.04650879 1550 1551.34924316 1555.62890625 1562.22045898 1572.41870117 1577.76098633 1584.9362793 1592.32409668 1597.69018555 1605.27844238 1612.67492676 1621.79394531 1627.92834473 1632.51538086 1638.35644531 1645.18579102 1650 1652.63000488 1660 1661.98999023 1670.21533203 1677.93395996 1681.29528809 1681.93798828 1687.35144043 1688.85180664 1691.4395752 1695.51184082 1698.90698242 1702.35021973 1721.85266113 1728.13098145 1732.21533203 1738.35498047 1742.62915039 1747.82641602 1751.67602539 1754.53662109 1760 1761.79345703 1764.93164062 1767.79064941 1772.35876465 1775.16967773 1776.07470703 1775.50415039 1771.97802734 1774.99035645 1791.5135498 1789.76049805 1787.80957031 1785.48132324 1802.45922852 1807.74230957 1805.1081543 1807.57397461 1802.46240234 1804.79394531 1817.13220215 1829.92407227 1832.64343262 1824.85461426 1832.03637695 1834.66357422 1841.8795166 1847.72485352 1851.96569824 1857.51428223 1860 1864.86047363 1865.5546875 1867.91320801 1867.71057129 1870.04785156 1867.75183105 1867.10412598 1867.90039062 1865.49255371 1862.84558105 1857.4029541 1854.89746094 1855.13427734 1850.03759766 1848.08190918 1847.86291504 1845.26513672 1845.1373291 1844.38989258 1844.5793457 1844.57055664 1840.81494141 1837.89465332 1844.15856934 1857.05651855 1870 1875.06091309 1862.4786377 1845.33679199 1827.88903809 1815.13305664 1807.37304688 1802.12402344 1794.4206543 1795.265625 1787.78222656 1782.03015137 1774.76782227 1770.00585938 1764.95947266 1762.29797363 1758.13122559 1751.98962402 1745.55273438 1738.28857422 1732.6706543 1731.12963867 1724.76330566 1719.37280273 1714.5090332 1708.11401367 1705.26074219 1699.31054688 1689.95788574 1682.25012207 1677.64221191 1675.14697266 1670 1668.80285645 1666.37780762 1665.51318359 1662.57324219 1657.91564941 1645.30065918 1638.20324707 1631.9453125 1627.60620117 1617.62976074 1612.33520508 1604.27258301 1595.22570801 1587.98852539 1581.81115723 1577.4888916 1567.68188477 1562.38037109 1557.72363281 1554.50585938 1552.07617188 1547.88305664 1537.77185059 1532.55444336 1528.28515625 1521.45959473 1512.01000977 1501.79309082 1494.74902344 1490 1484.765625 1480.98510742 1479.40380859 1475.9296875 1471.24731445 1468.36230469 1466.96691895 1461.59277344 1455.19250488 1445.26586914 1435.45703125 1430 1422.12133789 1419.02478027 1418.51733398 1417.23901367
1267.63781738 1271.92614746 1280 1283.09997559 1286.27746582 1290 1290 1291.83312988 1295.46691895 1294.86645508 1302.21936035 1312.3939209 1318.93127441 1321.97143555 1321.89855957 1327.95166016 1332.43347168 1338.25244141 1347.63952637 1354.78063965 1362.33276367 1377.56713867 1384.38391113 1388.69604492 1404.75134277 1415.20397949 1421.7467041 1427.66174316 1432.20983887 1437.95080566 1442.47851562 1451.79040527 1455.0333252 1464.95178223 1472.13098145 1478.23352051 1481.828125 1487.09521484 1488.43408203 1490 1492.08374023 1494.6348877 1494.83251953 1501.57800293 1504.13562012 1508.0567627 1510 1514.39318848 1517.80761719 1520 1530 1534.63903809 1540 1544.39147949 1547.48095703 1551.18029785 1554.98901367 1558.28833008 1562.4296875 1567.52270508 1574.70422363 1585.11572266 1595.51977539 1602.33081055 1610 1615.18908691 1625.69384766 1631.75463867 1636.07873535 1642.5604248 1647.60241699 1651.61499023 1660 1663.22766113 1665.79077148 1672.57983398 1677.7611084 1678.92541504 1681.39172363 1686.18798828 1690.85144043 1691.71276855 1697.92028809 1702.76367188 1712.50756836 1719.96679688 1727.7677002 1732.17150879 1737.60559082 1741.77062988 1744.97473145 1744.51062012 1750 1750 1752.43884277 1759.93017578 1766.03674316 1768.28234863 1770.39587402 1771.63305664 1767.95227051 1765.9453125 1775.0546875 1775.94299316 1772.56945801 1765.25646973 1780.21240234 1787.35803223 1782.85021973 1777.52453613 1782.32458496 1787.57824707 1795.09533691 1800.17370605 1809.88146973 1814.64489746 1820 1827.66442871 1832.38208008 1841.75671387 1844.75646973 1845.41137695 1852.06958008 1855.33190918 1855.56103516 1855.37133789 1857.41369629 1860 1857.87854004 1855.76818848 1855.29187012 1855.23864746 1852.2421875 1846.57861328 1838.39794922 1842.47973633 1838.09411621 1837.91479492 1835.3170166 1834.98181152 1834.72351074 1834.89208984 1834.18847656 1834.97058105 1834.62451172 1831.58972168 1827.8984375 1845.25830078 1860.08093262 1870 1855.1340332 1832.40283203 1819.43566895 1809.99133301 1802.04101562 1797.15930176 1787.68579102 1784.67419434 1778.13879395 1772.39331055 1764.79504395 1762.02282715 1757.88513184 1754.77685547 1751.85913086 1748.10083008 1742.12890625 1735.31323242 1728.03857422 1724.87109375 1721.65734863 1717.36584473 1711.47546387 1704.33105469 1698.70800781 1688.27929688 1682.01696777 1677.51147461 1671.82702637 1669.1192627 1668.52783203 1666.84887695 1661.41503906 1658.66442871 1657.85900879 1652.06420898 1642.42285156 1635.82885742 1627.74023438 1621.98034668 1615.50158691 1610 1604.3458252 1595.27490234 1586.29760742 1580 1575.42602539 1565.64306641 1555.26745605 1547.85424805 1544.88232422 1542.60681152 1538.19055176 1532.03076172 1530 1527.24975586 1521.52746582 1514.93383789 1504.58447266 1494.53051758 1488.69348145 1484.08825684 1479.23144531 1478.49291992 1474.17089844 1469.46020508 1465.16540527 1461.3449707 1457.60559082 1451.80114746 1444.82006836 1435.3416748 1427.82177734 1418.55810547 1417.78820801 1414.79492188 1415.20178223
1260 1271.71118164 1278.28430176 1280 1283.8605957 1283.75964355 1284.75036621 1285.90356445 1287.88818359 1288.04333496 1296.99829102 1307.76489258 1312.26464844 1314.71484375 1317.93652344 1322.08825684 1327.73303223 1335.61157227 1342.2355957 1351.75476074 1361.49645996 1373.57592773 1381.76501465 1390 1402.58398438 1410 1420 1420 1430 1431.97473145 1437.84448242 1440 1450 1464.69335938 1471.90698242 1474.92163086 1477.33642578 1481.40478516 1486.2923584 1490 1490 1490 1490 1495.62194824 1498.17590332 1501.89831543 1504.1685791 1508.1472168 1514.88781738 1520 1524.69934082 1527.72253418 1530 1535.17980957 1542.03649902 1548.03295898 1551.40039062 1554.23535156 1558.22424316 1565.60620117 1577.95617676 1585.49121094 1592.60949707 1598.05932617 1602.47888184 1614.72106934 1622.35546875 1630 1632.85046387 1640 1644.85290527 1654.49304199 1660 1661.68701172 1665.88647461 1671.31872559 1671.97363281 1677.92028809 1680 1684.0480957 1688.13671875 1691.27441406 1693.16711426 1696.70947266 1701.69287109 1709.35351562 1719.52722168 1724.15161133 1724.78015137 1729.61010742 1734.70043945 1735.31848145 1742.19921875 1742.03381348 1742.45959473 1752.4609375 1761.79968262 1763.4942627 1764.11560059 1765.07910156 1761.66552734 1761.25866699 1762.28063965 1770 1765.38110352 1760.54858398 1758.19519043 1764.47912598 1762.59875488 1760 1772.3260498 1774.99768066 1780.05273438 1782.38781738 1794.85839844 1800 1812.30493164 1820 1824.77600098 1835.36706543 1835.0916748 1837.70629883 1842.65966797 1845.28552246 1846.18347168 1848.06530762 1847.6776123 1844.98901367 1845.02624512 1844.82775879 1845.34008789 1845.1270752 1837.87878418 1834.72460938 1833.95629883 1831.91015625 1830 1827.6887207 1825.2713623 1825.21960449 1824.91052246 1820 1825.07446289 1822.3293457 1824.82751465 1819.50524902 1819.77868652 1832.80090332 1849.8416748 1850.11730957 1852.46569824 1822.42126465 1807.42797852 1799.95153809 1792.48254395 1787.74499512 1782.00439453 1777.46435547 1772.2109375 1767.66955566 1758.0279541 1754.75219727 1750.25268555 1745.24780273 1742.328125 1741.96533203 1735.01916504 1729.39953613 1721.06689453 1717.95581055 1712.41589355 1710.30212402 1707.66320801 1701.88378906 1692.63903809 1684.48706055 1680 1674.90209961 1671.05212402 1668.73449707 1666.9230957 1662.47119141 1658.88830566 1657.27832031 1651.81835938 1647.62634277 1638.48754883 1634.11303711 1625.08862305 1620 1614.30175781 1608.18615723 1602.05944824 1595.43762207 1585.9967041 1581.47521973 1574.2557373 1564.89990234 1554.90588379 1545.40734863 1537.88305664 1534.43212891 1532.0670166 1528.36193848 1530 1528.12744141 1523.70080566 1514.6940918 1504.57336426 1495.28466797 1488.89892578 1484.74255371 1478.49719238 1475.14294434 1471.36132812 1467.71166992 1461.39282227 1457.61645508 1450.27478027 1448.21203613 1440.16943359 1432.17578125 1424.44006348 1414.24353027 1412.77197266 1411.09313965 1411.15771484
1260 1264.67663574 1267.97814941 1274.39562988 1274.32202148 1275.83996582 1280 1280 1277.41894531 1282.05004883 1287.58764648 1301.91552734 1304.90344238 1308.04577637 1312.47302246 1317.91296387 1324.65698242 1338.23266602 1342.07727051 1350.06884766 1357.92785645 1365.48547363 1377.44604492 1389.52514648 1400 1407.79125977 1411.04064941 1417.88452148 1424.81774902 1425.47119141 1427.92138672 1437.42492676 1447.30700684 1460 1465.26708984 1465.4041748 1469.73181152 1477.48083496 1482.3347168 1485.51379395 1487.60827637 1488.30615234 1487.86938477 1490 1492.55187988 1494.80041504 1497.74633789 1505.17907715 1512.04638672 1518.01416016 1517.74487305 1521.85290527 1527.57800293 1532.19262695 1538.46264648 1541.78088379 1545.10961914 1547.86865234 1555.1361084 1562.59033203 1572.35620117 1580 1592.42834473 1598.06494141 1607.74572754 1615.29992676 1620 1625.96484375 1635.07519531 1640 1645.16760254 1650 1654.56713867 1660.94458008 1661.87451172 1665.56518555 1668.47619629 1672.91418457 1675.79321289 1681.36462402 1682.61474609 1688.33874512 1691.8651123 1694.12133789 1696.97229004 1702.9675293 1707.58544922 1713.84289551 1718.14440918 1724.78662109 1730 1730 1732.11694336 1734.71533203 1738.20092773 1747.12072754 1752.10339355 1755.85839844 1757.36413574 1758.08227539 1757.62255859 1757.08410645 1756.24768066 1756.13110352 1755.14648438 1754.07006836 1753.45715332 1755.13427734 1755.18835449 1758.16040039 1759.01745605 1767.90344238 1771.8572998 1775.78967285 1787.734375 1795.01074219 1807.70544434 1812.23120117 1815.60998535 1822.30151367 1822.19580078 1827.83203125 1832.13366699 1837.52404785 1840 1840 1837.76159668 1834.70202637 1834.76782227 1835.31115723 1835.14953613 1835.31213379 1829.9329834 1824.82861328 1821.94628906 1821.96801758 1818.0246582 1815.15307617 1815.29187012 1815.25488281 1813.13415527 1812.39160156 1812.44848633 1805.41699219 1812.34216309 1804.91967773 1804.91992188 1819.76904297 1832.39807129 1837.95812988 1827.55541992 1809.9901123 1799.6472168 1792.21435547 1787.84558105 1782.01818848 1777.94543457 1772.00036621 1767.53857422 1758.19555664 1752.37365723 1750 1745.29992676 1738.87463379 1737.63317871 1732.0402832 1727.67773438 1720.11657715 1717.00048828 1711.97192383 1708.44750977 1707.28918457 1701.62756348 1695.07910156 1690 1685.20605469 1681.39208984 1675.66809082 1671.47497559 1668.6427002 1664.27270508 1662.13647461 1658.68884277 1653.96679688 1650 1644.70361328 1638.39697266 1633.75866699 1624.62268066 1618.00183105 1610.40698242 1602.86743164 1598.15625 1592.31335449 1585.94250488 1580 1574.44628906 1564.36328125 1550 1542.25317383 1535.05615234 1527.84472656 1525.20349121 1523.91955566 1527.36120605 1530 1527.91711426 1515.41381836 1505.2824707 1495.36499023 1488.0970459 1481.81811523 1476.3001709 1471.59448242 1468.88830566 1464.94543457 1460 1454.94360352 1447.65307617 1441.59033203 1435.75219727 1427.78210449 1416.82763672 1410 1410 1407.73474121 1405.54223633
1252.72607422 1255.80578613 1262.23120117 1265.16723633 1267.57080078 1271.86425781 1273.9901123 1271.7935791 1265.31604004 1274.63793945 1280.79443359 1297.80761719 1300 1302.37023926 1307.8984375 1312.07751465 1325.11254883 1337.8795166 1344.07226562 1349.51940918 1352.60522461 1362.20178223 1372.19177246 1384.48095703 1394.33666992 1401.87780762 1407.6307373 1412.31066895 1417.51794434 1420 1420 1435.17407227 1442.59289551 1452.37463379 1457.49353027 1460 1462.19885254 1470 1472.09399414 1480 1481.70251465 1481.05310059 1481.94006348 1485.44995117 1490 1490 1490 1501.87182617 1507.82141113 1512.06604004 1510 1517.7175293 1525.13574219 1531.2947998 1533.80004883 1535.41796875 1540 1544.94689941 1551.88903809 1560 1565.63012695 1580.02685547 1594.99243164 1604.51818848 1610 1615.02392578 1620 1625.27478027 1628.95007324 1637.71386719 1641.60595703 1645.69067383 1648.73999023 1652.42382812 1657.74682617 1661.59484863 1664.27844238 1667.62097168 1670 1677.85766602 1680 1684.29394531 1688.47033691 1690 1694.92687988 1701.55773926 1705.66345215 1714.13208008 1716.66418457 1721.88354492 1724.3972168 1725.31713867 1728.44299316 1730 1735.25341797 1741.79443359 1747.68994141 1751.53637695 1752.40881348 1756.33300781 1755.32739258 1753.74279785 1753.22949219 1751.51257324 1748.97412109 1748.56811523 1749.02868652 1750 1751.20422363 1753.89855957 1757.90087891 1765.0513916 1768.72375488 1780 1777.81079102 1792.37231445 1795.7331543 1802.8894043 1805.74499512 1807.95007324 1814.59997559 1817.52783203 1822.14855957 1825.85241699 1830 1827.69519043 1825.04321289 1825.12927246 1825.27075195 1824.70300293 1824.68249512 1822.45837402 1817.5534668 1812.28381348 1812.01977539 1811.88879395 1804.98950195 1804.75219727 1804.88635254 1802.42919922 1797.58569336 1790.23059082 1787.72253418 1788.01086426 1794.88354492 1794.7064209 1790 1800 1825.1484375 1835.2545166 1815.05078125 1800.30236816 1790.18798828 1785.03845215 1781.8347168 1777.71899414 1771.94055176 1768.03833008 1762.06176758 1755.01025391 1748.66821289 1746.05810547 1741.94238281 1737.48046875 1731.87438965 1730 1722.33789062 1714.8963623 1709.23376465 1705.75683594 1702.96032715 1701.42834473 1698.1730957 1691.85021973 1687.9744873 1682.73937988 1680 1676.60778809 1673.44335938 1669.15734863 1668.12731934 1662.98461914 1656.73791504 1652.03222656 1650 1645.76855469 1640 1634.35205078 1624.96679688 1614.99108887 1605.50610352 1601.66552734 1594.47033691 1588.45373535 1584.03356934 1577.5267334 1570 1562.03308105 1547.83911133 1540 1530.01745605 1522.3326416 1520 1520 1522.35803223 1530 1527.77050781 1515.2545166 1505.28979492 1494.03845215 1484.94299316 1477.92932129 1472.2175293 1467.39440918 1464.19421387 1461.42248535 1457.83178711 1447.95300293 1442.07617188 1435.05651855 1429.76599121 1422.28015137 1414.53161621 1410 1403.63586426 1398.54187012 1396.03540039
1248.46801758 1250 1252.34753418 1257.98413086 1260 1265.06420898 1265.25866699 1262.44592285 1262.01855469 1271.71899414 1277.3269043 1292.14172363 1295.21789551 1298.50805664 1304.32824707 1315.16625977 1325.05664062 1331.9855957 1339.3972168 1344.62548828 1347.5390625 1357.17126465 1368.04321289 1377.5715332 1387.79577637 1394.51013184 1397.95166016 1405.45471191 1405.3873291 1407.93432617 1417.79077148 1427.54968262 1435.66394043 1438.47705078 1447.71289062 1452.03540039 1458.20214844 1461.93078613 1470 1475.45019531 1472.02783203 1474.98352051 1477.64807129 1480 1484.28430176 1484.28686523 1487.68505859 1497.8815918 1500 1502.19250488 1508.29077148 1512.19567871 1517.87573242 1525.55163574 1527.79992676 1528.7010498 1537.9621582 1544.79553223 1550.37414551 1558.20910645 1565.37207031 1576.75805664 1594.71643066 1601.80932617 1607.83679199 1610.50549316 1618.45812988 1624.20336914 1628.49523926 1632.25170898 1638.11230469 1641.45849609 1644.45507812 1648.0255127 1652.37414551 1658.37353516 1660 1664.93640137 1670 1675.35949707 1680 1682.05493164 1688.37121582 1689.42712402 1700.9329834 1704.70166016 1707.7980957 1711.57922363 1713.3092041 1718.23278809 1718.88647461 1721.28137207 1726.6965332 1728.68066406 1733.5880127 1739.45861816 1745.25427246 1750 1750.9786377 1751.67285156 1751.33666992 1750.66271973 1748.56567383 1746.30944824 1745.25524902 1744.11791992 1747.27636719 1750 1750 1750 1755.28637695 1762.05895996 1767.24694824 1770 1772.26672363 1780.21630859 1787.56762695 1794.99914551 1797.48522949 1798.06469727 1802.12841797 1804.94812012 1812.52746582 1818.00048828 1818.21557617 1817.63366699 1814.81591797 1815.00732422 1815.20922852 1814.86950684 1814.70019531 1810 1807.67871094 1802.48547363 1798.27758789 1794.40283203 1790.43994141 1790.2109375 1794.76721191 1790.5871582 1785.63452148 1780.84521484 1778.23095703 1778.45800781 1784.45959473 1784.27990723 1787.26306152 1795.21313477 1805.74658203 1810.95288086 1809.92651367 1800 1785.59973145 1780 1777.90356445 1769.8482666 1764.78125 1761.72094727 1757.76635742 1751.99353027 1745.5201416 1741.51000977 1738.66931152 1734.71386719 1730 1722.38708496 1714.52270508 1711.8651123 1702.18664551 1700 1698.08068848 1698.24536133 1692.55725098 1690 1684.90380859 1680 1679.09606934 1676.40820312 1671.76367188 1670 1666.1463623 1660 1654.51794434 1651.12084961 1648.31445312 1642.80578613 1640 1634.83496094 1627.91320801 1615.37390137 1604.6036377 1597.87817383 1591.67175293 1585.73254395 1581.2935791 1572.2010498 1560.44714355 1554.99511719 1542.68017578 1532.32006836 1525.25244141 1518.56335449 1518.06005859 1515.40356445 1518.47277832 1524.36657715 1521.80615234 1510.37463379 1498.01586914 1492.01208496 1484.28613281 1468.54125977 1464.80517578 1461.54870605 1458.01708984 1455.42736816 1448.11132812 1442.35717773 1437.63696289 1427.99816895 1419.85253906 1414.81079102 1415.06140137 1410 1401.62390137 1395.18371582 1391.53125
1243.95129395 1244.17749023 1245.87988281 1250 1252.17456055 1255.24023438 1252.44909668 1250 1257.88952637 1264.66174316 1274.91833496 1284.61364746 1291.20092773 1295.59484863 1305.21813965 1314.65405273 1321.9152832 1330 1332.61010742 1337.5925293 1340 1352.39794922 1357.6998291 1367.63269043 1382.48449707 1387.60998535 1392.63525391 1395.30822754 1397.54162598 1404.53588867 1414.73669434 1422.54626465 1428.00646973 1437.53601074 1440 1450 1452.36120605 1458.1184082 1462.3013916 1467.49902344 1467.67663574 1467.97827148 1471.69519043 1474.44519043 1475.71887207 1478.43640137 1485.41503906 1495.33618164 1497.40283203 1500 1502.37585449 1505.05895996 1512.28210449 1515.40856934 1521.52209473 1527.18469238 1532.17456055 1541.81750488 1548.1661377 1557.86804199 1565.06958008 1579.33898926 1585.14892578 1595.29870605 1602.01953125 1609.66601562 1615.94970703 1621.67993164 1622.94921875 1628.23034668 1632.05273438 1635.12231445 1638.1340332 1644.72473145 1651.20227051 1655.63134766 1660 1664.9197998 1670 1674.84509277 1680 1681.49145508 1685.55236816 1688.97399902 1702.63244629 1707.02185059 1705.54455566 1708.80725098 1711.75183105 1712.22143555 1717.1003418 1720 1723.7109375 1726.92102051 1733.25830078 1736.25219727 1741.72106934 1745.3092041 1747.99023438 1750 1750 1747.77282715 1743.8927002 1743.04418945 1742.46105957 1741.76086426 1745.78747559 1750 1750 1752.35510254 1757.82873535 1760 1760 1767.80004883 1764.46826172 1770 1776.6361084 1780.43701172 1787.6282959 1788.14416504 1787.86022949 1792.52050781 1802.32165527 1805.35388184 1804.73339844 1805.18310547 1799.84851074 1804.29699707 1797.22753906 1796.62353516 1800 1799.58618164 1794.74523926 1794.54504395 1790.52038574 1783.06884766 1779.91711426 1780.26379395 1782.22558594 1781.92358398 1777.81591797 1774.16345215 1773.40820312 1772.01220703 1770 1777.40454102 1782.16943359 1787.62561035 1797.72570801 1802.20898438 1797.55065918 1792.17712402 1785.89587402 1780 1775.01635742 1765.92871094 1760 1758.43774414 1752.54333496 1750 1745.02050781 1740 1734.66052246 1731.55493164 1725.12475586 1720 1710 1702.89257812 1698.32043457 1694.18310547 1690 1690 1691.07080078 1690 1681.52490234 1678.39575195 1675.68640137 1672.22033691 1671.12475586 1667.88476562 1663.63098145 1660 1654.08581543 1650 1643.9954834 1640 1637.93261719 1631.84375 1622.14916992 1614.79614258 1604.63293457 1595.70727539 1590 1584.86450195 1575.18017578 1565.03894043 1555.01098633 1547.54833984 1537.98303223 1527.87683105 1519.56945801 1513.98706055 1513.3762207 1512.90795898 1514.46142578 1515.29663086 1512.30029297 1500.68139648 1492.18469238 1480.95166016 1477.53430176 1465.50878906 1459.85290527 1457.24938965 1451.70263672 1445.34558105 1442.10717773 1437.58581543 1430.04821777 1422.3984375 1414.8404541 1410 1412.69287109 1415 1398.04785156 1390.16638184 1382.35168457
1231.97033691 1237.2454834 1241.90112305 1244.63708496 1245.74780273 1245.76843262 1244.4979248 1247.89746094 1255.07824707 1261.92700195 1270 1282.03552246 1290 1292.55480957 1302.51416016 1310.07629395 1320 1324.59619141 1327.18041992 1334.34875488 1340 1344.75097656 1354.93701172 1365.08789062 1372.3059082 1377.68054199 1385.18249512 1390 1394.89196777 1402.25 1414.96398926 1420 1422.88427734 1430 1432.30395508 1435.24206543 1448.09008789 1451.76135254 1454.40405273 1457.70983887 1460 1465.37817383 1468.51708984 1468.07824707 1471.46911621 1476.97644043 1485.16784668 1490 1492.33703613 1495.18664551 1497.9642334 1498.80883789 1505.73852539 1510 1517.25671387 1524.43774414 1534.94812012 1542.33349609 1552.43188477 1562.54052734 1577.21057129 1581.8828125 1586.48364258 1591.83215332 1600 1603.15551758 1608.02856445 1615.19018555 1617.62976074 1620 1624.60400391 1627.86450195 1634.75939941 1642.08850098 1651.98291016 1657.70202637 1660 1665.09265137 1670 1675.6496582 1680 1680.78686523 1682.00952148 1687.74377441 1696.97595215 1700 1701.60046387 1707.59912109 1710 1710 1714.51513672 1720.87524414 1727.28186035 1728.61743164 1731.37756348 1732.59338379 1736.35253906 1738.65014648 1741.83251953 1745.08874512 1745.42041016 1742.12915039 1739.29455566 1740 1740 1740 1744.57067871 1751.57373047 1757.68786621 1767.59277344 1770 1764.87854004 1760 1762.29211426 1757.60961914 1762.45446777 1764.81396484 1767.74938965 1775.51916504 1775.56848145 1779.47119141 1775.28076172 1783.73571777 1789.96228027 1789.84179688 1794.93859863 1787.24890137 1787.6628418 1784.77832031 1782.27453613 1785.23400879 1784.74890137 1785.10046387 1784.15100098 1782.06237793 1781.6184082 1774.93017578 1767.91455078 1770 1774.54980469 1771.66674805 1767.20300293 1762.44042969 1760 1767.63476562 1771.67358398 1777.72155762 1784.58508301 1790 1792.05688477 1790.11169434 1785.06799316 1782.30639648 1778.34655762 1774.47290039 1765.30334473 1760 1755.44213867 1751.15405273 1748.50756836 1745.27404785 1737.61035156 1728.68823242 1727.6348877 1721.78039551 1717.40734863 1710 1700 1694.95458984 1691.47875977 1688.03344727 1685.52941895 1684.76818848 1684.1529541 1677.68664551 1673.54736328 1671.35961914 1670.96142578 1670 1667.67150879 1666.98486328 1664.75439453 1659.77868652 1648.20556641 1641.29016113 1635.15515137 1632.02282715 1625.37329102 1620 1614.69470215 1604.19934082 1595.31665039 1588.2076416 1585.25463867 1574.75830078 1559.9654541 1549.90649414 1538.27990723 1532.31555176 1525.36975098 1514.7755127 1505.21789551 1505.36010742 1507.54431152 1510 1507.97460938 1505.49511719 1495.35461426 1487.87854004 1475.17626953 1467.83630371 1457.92883301 1452.12145996 1447.66125488 1442.30175781 1438.10571289 1432.4486084 1427.86254883 1422.26977539 1417.77880859 1409.76977539 1404.29443359 1404.90893555 1402.47631836 1392.50769043 1385.30004883 1378.10388184
1228.39575195 1231.81982422 1235.79174805 1238.2590332 1240 1238.45227051 1237.65893555 1245.3392334 1252.40209961 1262.30383301 1270 1277.68212891 1284.71960449 1290 1298.20788574 1304.43188477 1307.80566406 1315.32189941 1324.74902344 1330 1327.5949707 1339.73937988 1350 1360 1367.66394043 1374.44177246 1378.27880859 1384.63195801 1391.00683594 1400.8704834 1412.64709473 1417.50231934 1421.57458496 1424.39978027 1424.50048828 1427.97094727 1437.60412598 1442.70458984 1447.76879883 1450 1457.44543457 1462.15100098 1460 1460 1467.37646484 1472.34155273 1480 1485.05322266 1488.30493164 1488.55371094 1491.93579102 1497.81652832 1500 1500 1514.71826172 1524.54553223 1535.1484375 1544.8572998 1554.9206543 1570.24243164 1580 1584.7800293 1587.01208496 1592.67614746 1598.44726562 1600 1604.24353027 1608.0838623 1610 1617.54064941 1618.85852051 1624.21557617 1628.70007324 1639.07214355 1650.25683594 1658.22045898 1660 1664.50354004 1668.37072754 1671.96496582 1677.07702637 1680 1681.58544922 1686.10705566 1690 1692.05688477 1697.77990723 1701.9095459 1707.86645508 1712.13061523 1719.27856445 1725.92260742 1730 1730 1730.83007812 1731.06079102 1733.28234863 1735.26928711 1736.49914551 1737.28405762 1736.76733398 1736.28625488 1736.00305176 1736.69812012 1738.61303711 1739.14794922 1746.73718262 1763.30187988 1782.41870117 1787.63964844 1794.64782715 1775.25646973 1762.69128418 1754.79284668 1750 1760 1760 1762.14343262 1765.4206543 1765.7755127 1764.95983887 1765.32275391 1772.64001465 1769.73657227 1770.21569824 1774.83666992 1767.88635254 1774.92297363 1770.22705078 1772.09375 1772.80822754 1765.5526123 1769.94348145 1769.55737305 1765.00390625 1765.09082031 1762.44921875 1759.24853516 1760 1764.68920898 1762.15026855 1757.64465332 1754.4354248 1757.734375 1762.0045166 1765.07702637 1772.01660156 1777.43457031 1780 1782.17907715 1778.4921875 1777.77685547 1775.11547852 1774.12451172 1771.39599609 1762.2557373 1757.9095459 1751.94165039 1747.35339355 1744.33081055 1741.84228516 1735.33227539 1725.63928223 1721.52612305 1718.28430176 1711.80932617 1704.6595459 1697.70947266 1688.19348145 1682.47961426 1680 1675.33239746 1677.94128418 1670 1670 1668.49621582 1665.9173584 1665.71069336 1667.86853027 1674.89831543 1677.56530762 1682.74304199 1680.02746582 1667.39086914 1644.94372559 1630 1624.84313965 1618.02575684 1614.68054199 1608.01733398 1601.81469727 1592.2467041 1584.43615723 1581.64208984 1570.13989258 1557.48632812 1542.46142578 1532.50427246 1527.76965332 1520 1507.88183594 1500 1497.62207031 1497.89050293 1500 1501.96057129 1499.4765625 1489.68237305 1482.17858887 1467.71716309 1460.02600098 1450.67358398 1444.8671875 1440.15185547 1437.27697754 1431.79174805 1427.40734863 1418.02331543 1415.22888184 1411.82873535 1404.61315918 1397.41040039 1394.83361816 1391.97595215 1387.84020996 1381.90197754 1372.41699219
1224.22009277 1228.26245117 1230.56982422 1232.14855957 1234.78527832 1232.2043457 1231.99743652 1243.82421875 1248.27600098 1260 1267.81652832 1272.56604004 1275.26794434 1283.63427734 1287.55175781 1292.54821777 1302.48657227 1307.86462402 1314.74194336 1317.6126709 1327.1986084 1345.0904541 1355.20397949 1360 1363.30053711 1371.57385254 1375.43554688 1381.7130127 1387.53393555 1395.76123047 1407.70397949 1407.76916504 1407.95019531 1417.92919922 1420 1425.72924805 1432.01489258 1437.83642578 1444.70935059 1450 1450 1452.45251465 1454.24121094 1457.43359375 1465.15625 1467.35229492 1480 1477.58569336 1479.18225098 1484.75500488 1487.80786133 1490 1494.53393555 1505.45092773 1515.62438965 1524.16601562 1535.13220215 1544.5958252 1554.44775391 1567.36743164 1577.7043457 1581.63037109 1585.90686035 1591.51879883 1594.63317871 1595.56115723 1598.30187988 1604.71508789 1608.65258789 1613.65637207 1616.7286377 1623.63903809 1628.33068848 1635.11035156 1644.89587402 1650 1654.76745605 1661.59411621 1663.28039551 1668.21362305 1671.56518555 1674.97912598 1674.78857422 1680.08642578 1687.9239502 1688.6875 1694.6986084 1701.09790039 1702.40783691 1712.2746582 1720 1722.68737793 1730 1728.46984863 1727.87487793 1728.48193359 1730 1731.1484375 1732.06225586 1734.95178223 1733.57324219 1733.08996582 1732.95227051 1733.35839844 1737.21484375 1738.28112793 1757.42138672 1777.8145752 1790 1790 1797.71862793 1793.89294434 1777.31018066 1754.94348145 1750 1754.68603516 1751.96337891 1751.96643066 1755.2442627 1755.3302002 1755.28088379 1754.98083496 1754.74157715 1754.62255859 1750 1755.15930176 1754.91918945 1754.85205078 1754.87426758 1755.37438965 1757.68273926 1754.83654785 1754.90649414 1754.82250977 1752.53417969 1749.80627441 1745.32421875 1744.91003418 1744.93188477 1747.47473145 1754.72570801 1747.62207031 1747.73828125 1751.68383789 1755.31054688 1758.43188477 1765.05700684 1771.69116211 1774.43359375 1775.27270508 1772.13891602 1771.72375488 1768.68945312 1765.95874023 1762.20080566 1758.03808594 1748.30053711 1747.00390625 1741.81811523 1737.93981934 1735.23864746 1732.41369629 1725.45385742 1720 1712.27722168 1709.13354492 1700.63842773 1693.81420898 1685.42871094 1679.4909668 1672.08215332 1667.7076416 1665.79443359 1667.16992188 1664.43603516 1664.04980469 1663.14331055 1661.60913086 1667.60974121 1687.92663574 1677.45629883 1676.93054199 1687.40209961 1692.40637207 1662.98278809 1639.68920898 1615.25878906 1611.89379883 1610 1601.95129395 1594.99438477 1587.61242676 1577.83190918 1571.94958496 1565.3157959 1558.015625 1544.76025391 1528.03430176 1518.33740234 1512.27246094 1504.68127441 1492.64428711 1490.38256836 1485.7487793 1487.89465332 1485.54553223 1485.48681641 1482.37280273 1472.12243652 1457.63195801 1449.74230957 1442.4708252 1438.12634277 1432.20471191 1428.21777344 1424.73193359 1417.88879395 1408.16162109 1405.23876953 1404.88793945 1398.23999023 1392.05480957 1387.44445801 1382.1706543 1378.3671875 1375.66992188 1367.68908691
1221.0345459 1221.75805664 1225.13232422 1228.6451416 1230 1230 1235.54382324 1244.5090332 1248.25732422 1255.36425781 1261.9440918 1265.08044434 1265.32788086 1272.3215332 1277.68994141 1287.34912109 1295.08312988 1300 1302.15197754 1315.15283203 1325.79833984 1342.36621094 1352.06713867 1355.37268066 1357.41210938 1370 1372.17578125 1374.76489258 1374.73986816 1392.89147949 1402.00561523 1397.77490234 1402.07958984 1407.62805176 1412.48364258 1422.40783691 1427.82617188 1432.52587891 1442.40490723 1445.2244873 1444.83081055 1445.46008301 1445.08776855 1457.4564209 1457.35595703 1467.56164551 1468.51574707 1467.5826416 1472.32922363 1480 1484.5291748 1490 1495.50158691 1502.96337891 1513.95776367 1525.7166748 1535.22119141 1545.15161133 1554.82165527 1566.37731934 1570 1574.70214844 1582.17675781 1585.01220703 1590 1590 1597.07641602 1601.59082031 1607.38745117 1611.56091309 1616.12121582 1623.73608398 1626.48840332 1635.36987305 1641.87463379 1644.65625 1648.03820801 1648.92126465 1659.37512207 1664.52331543 1668.54003906 1670 1670 1672.55297852 1681.76818848 1684.51098633 1689.86486816 1694.94897461 1697.6739502 1705.00183105 1715.30273438 1718.09973145 1725.26000977 1723.98010254 1723.17993164 1723.87658691 1728.03149414 1730 1730 1730 1730 1730 1730 1730.90979004 1732.25793457 1736.79675293 1764.82287598 1787.57714844 1790 1790 1795.16821289 1807.51281738 1782.64245605 1762.31994629 1740 1745.39074707 1745.49035645 1744.78088379 1745.01879883 1747.77246094 1744.70288086 1742.35864258 1737.5748291 1737.3503418 1735.76013184 1735.14196777 1737.29919434 1738.15942383 1742.31774902 1737.32092285 1742.99621582 1737.62255859 1736.83007812 1740 1740 1727.88110352 1725.06689453 1732.22180176 1734.86230469 1737.77160645 1737.61950684 1737.52893066 1737.71508789 1747.7232666 1751.4654541 1754.20007324 1757.84375 1767.7935791 1768.53320312 1768.72912598 1768.62451172 1766.11645508 1764.64282227 1761.63256836 1757.79199219 1752.2779541 1747.53601074 1743.15625 1738.13269043 1732.05517578 1728.93615723 1728.28625488 1722.77807617 1718.04797363 1710 1704.89758301 1697.93432617 1691.62866211 1684.94384766 1675.32336426 1665.33398438 1660 1659.03015137 1660.5826416 1660 1658.62780762 1658.48925781 1658.27722168 1667.03442383 1679.70410156 1655.56335449 1654.97961426 1670.06774902 1695.27758789 1678.05322266 1652.41784668 1624.78442383 1604.63916016 1599.79101562 1592.60571289 1584.96862793 1577.81140137 1572.05395508 1565.46411133 1557.76574707 1552.33483887 1550 1534.90649414 1515.71569824 1504.93676758 1495.49645996 1488.14477539 1482.39782715 1480.52783203 1478.0480957 1475.89245605 1475.35559082 1470.08703613 1457.58215332 1450.37487793 1437.55297852 1434.98583984 1431.86193848 1428.0411377 1422.01867676 1418.06848145 1412.4942627 1404.96118164 1397.92993164 1395.14733887 1392.23962402 1387.75097656 1380.48144531 1377.3326416 1371.97753906 1369.69519043 1362.20361328
1212.2487793 1217.8347168 1220.21899414 1222.76953125 1224.34069824 1227.98388672 1235.23608398 1244.30541992 1248.73937988 1250 1251.80090332 1255.03747559 1254.67053223 1257.70544434 1269.85083008 1278.07312012 1282.96813965 1290 1295.36096191 1312.48986816 1322.53613281 1334.81542969 1335.07507324 1348.81323242 1359.48486328 1365.6048584 1365.19140625 1365.20397949 1367.14599609 1379.9822998 1385.42041016 1386.11279297 1392.38256836 1402.24145508 1410 1420 1415.48474121 1421.12683105 1430 1431.94592285 1435.26049805 1438.07141113 1440 1452.62451172 1457.81738281 1461.57092285 1464.60754395 1462.3026123 1475.29174805 1480 1484.34790039 1488.31225586 1492.44836426 1501.74414062 1510.22167969 1524.71777344 1537.82019043 1547.43505859 1555.19689941 1561.99316406 1564.10681152 1568.16308594 1574.55554199 1575.17419434 1579.62915039 1587.14050293 1592.01782227 1600 1604.6998291 1611.38500977 1615.48278809 1621.78894043 1626.07080078 1631.95458984 1635.50622559 1638.43847656 1642.04577637 1648.07592773 1655.1809082 1661.28039551 1662.6986084 1667.68701172 1668.28894043 1670 1677.74353027 1680 1680 1684.77416992 1684.65185547 1694.75244141 1702.62023926 1712.21789551 1720 1720 1720 1720 1725.00585938 1730 1730 1730 1730 1727.87219238 1725.46289062 1727.48071289 1727.95947266 1739.01806641 1765.2154541 1790 1790 1790 1804.88500977 1805.76672363 1783.08935547 1760.08691406 1744.7052002 1735.49780273 1735.21081543 1734.9720459 1734.87475586 1734.86462402 1734.60620117 1730.44604492 1725.70568848 1725.07324219 1724.12548828 1722.3248291 1722.50195312 1724.63525391 1725.23254395 1725.0279541 1725.11804199 1724.47241211 1725.06359863 1725.2286377 1725.14831543 1722.18920898 1714.94348145 1720 1722.2130127 1724.97521973 1725.33239746 1724.98400879 1732.3338623 1745.23266602 1748.62341309 1748.9128418 1757.12866211 1770 1764.54760742 1764.01062012 1763.7010498 1761.35876465 1758.66381836 1757.84399414 1751.96313477 1750 1745.31164551 1740 1735.15905762 1731.07165527 1728.04309082 1724.76757812 1721.64379883 1720 1710 1704.23010254 1695.30310059 1690 1684.40161133 1672.3092041 1664.78125 1660 1657.91394043 1654.88671875 1653.46362305 1654.80126953 1654.3861084 1654.04455566 1674.93603516 1669.19140625 1635.04321289 1630.22961426 1649.9395752 1685.06958008 1693.73339844 1664.99609375 1628.25866699 1605.15515137 1594.36791992 1584.61242676 1577.52319336 1572.09301758 1565.1361084 1561.75134277 1550.56469727 1544.63952637 1540.03491211 1532.54711914 1517.64477539 1502.3692627 1495.02697754 1487.83422852 1480 1477.6036377 1471.68322754 1469.9864502 1465.44067383 1460.09338379 1450.53015137 1438.1262207 1432.12060547 1427.55187988 1424.52819824 1421.83947754 1415.16711426 1407.87329102 1402.44396973 1397.84179688 1391.89123535 1387.73596191 1382.87475586 1381.57739258 1377.25634766 1370.33850098 1367.42700195 1362.4543457 1357.61547852
1207.51464844 1211.80200195 1214.66174316 1217.53417969 1218.61877441 1228.26538086 1235.94555664 1241.83398438 1246.03222656 1246.19958496 1245.41320801 1245.4831543 1248.44995117 1255.64868164 1262.76525879 1267.50708008 1272.44519043 1287.86560059 1292.22937012 1305.58581543 1314.95849609 1322.30175781 1334.94287109 1347.91430664 1352.7409668 1357.83520508 1358.98596191 1357.79309082 1361.91381836 1370.44421387 1377.52233887 1381.56848145 1387.68395996 1394.90234375 1404.89819336 1407.65527344 1408.56994629 1415.2322998 1421.65612793 1424.72241211 1427.56237793 1432.05187988 1437.42810059 1442.46203613 1447.28088379 1452.1986084 1455.07177734 1455.52954102 1466.7310791 1475.23120117 1481.57067871 1482.57763672 1488.02954102 1495.22192383 1507.54968262 1525.68151855 1542.51696777 1550 1552.34765625 1555.3828125 1554.71228027 1557.3984375 1558.61474609 1564.1809082 1574.7512207 1584.41149902 1590 1597.81787109 1602.13244629 1607.90734863 1612.3314209 1618.2578125 1621.98400879 1627.73962402 1631.36889648 1634.52648926 1638.1998291 1645.06481934 1652.35717773 1658.17980957 1661.03137207 1661.82446289 1666.26403809 1670 1671.9050293 1674.3626709 1672.15576172 1670 1674.60424805 1682.21704102 1693.21679688 1702.59289551 1712.36877441 1715.84838867 1716.11853027 1715.03088379 1721.80737305 1726.9152832 1730 1730 1728.13195801 1724.37280273 1721.07519531 1717.61486816 1720 1735.12817383 1767.27429199 1790 1792.47875977 1800.07348633 1815.12780762 1801.40698242 1779.80737305 1755.41601562 1737.20532227 1727.7767334 1727.8605957 1725.49865723 1725.31311035 1722.19543457 1724.35021973 1721.67492676 1720 1717.84777832 1714.37280273 1714.26708984 1715.09619141 1715.2286377 1715.0723877 1710 1712.24414062 1715.5012207 1715.53222656 1715.2479248 1714.80932617 1710 1710 1714.34240723 1714.19433594 1714.89477539 1715.73791504 1720 1729.95581055 1744.04272461 1744.04772949 1747.73876953 1757.29260254 1770 1758.7154541 1758.04943848 1756.71289062 1756.40185547 1754.62548828 1751.84082031 1748.91479492 1748.0098877 1743.34240723 1741.3404541 1735.12475586 1728.63110352 1724.7487793 1721.08459473 1718.39648438 1714.23681641 1708.37451172 1703.92724609 1695.17150879 1688.00415039 1681.95263672 1670 1664.69335938 1659.04919434 1657.85522461 1651.00317383 1650 1650 1647.2310791 1647.59960938 1675.0703125 1669.48925781 1634.69104004 1617.70861816 1630.5255127 1665.10083008 1692.36853027 1674.80407715 1635.20324707 1614.90563965 1594.5300293 1577.91235352 1571.01672363 1565.15991211 1557.73791504 1548.32116699 1542.33569336 1534.88635254 1524.90380859 1517.90576172 1512.25036621 1501.97241211 1496.13220215 1491.64501953 1482.07824707 1475.17456055 1468.00915527 1462.01977539 1459.14794922 1452.05163574 1442.33276367 1434.88439941 1427.98876953 1420.13244629 1415.04956055 1412.58569336 1407.70166016 1401.9387207 1397.52416992 1392.02709961 1384.77880859 1378.75280762 1378.33996582 1375.2434082 1368.62854004 1363.28308105 1358.86010742 1355.11914062 1348.76220703
1201.98254395 1205.3269043 1208.17993164 1211.92089844 1220.33312988 1229.93408203 1235.69641113 1240.96777344 1241.49145508 1241.2376709 1241.45483398 1241.51696777 1245.42419434 1252.20336914 1252.20117188 1260 1270.07592773 1277.61584473 1282.70117188 1290.64526367 1305.02734375 1307.56799316 1330.22790527 1340 1347.49572754 1350 1350.00109863 1350.03198242 1357.75097656 1364.74731445 1372.25610352 1377.97558594 1384.79467773 1391.04040527 1397.56347656 1398.71313477 1405.59289551 1411.69445801 1414.8157959 1417.90002441 1420.56933594 1427.51611328 1430 1432.37475586 1437.77441406 1442.46142578 1451.7322998 1464.08288574 1468.17578125 1472.76477051 1474.71960449 1478.0489502 1484.79296875 1494.49133301 1509.58300781 1525.28552246 1537.79418945 1545.25915527 1545.62512207 1545.42944336 1545.6862793 1551.63024902 1554.6875 1558.14147949 1564.890625 1575.0012207 1587.77929688 1592.20141602 1598.08374023 1605.19641113 1611.41296387 1614.234375 1618.19824219 1621.65979004 1624.53344727 1629.68896484 1635.75268555 1641.97412109 1648.50354004 1652.00939941 1655.60058594 1660 1660 1662.29638672 1664.79455566 1666.00964355 1669.05541992 1670 1670.55712891 1675.18078613 1682.22167969 1694.9798584 1707.42431641 1710 1711.39477539 1705.54541016 1709.78979492 1719.67822266 1730 1727.94458008 1725.30810547 1719.73266602 1712.46704102 1708.30236816 1707.72644043 1729.40710449 1755.16259766 1777.45068359 1797.48376465 1807.98388672 1807.82263184 1799.86682129 1774.79223633 1749.16967773 1726.97424316 1720 1715.05493164 1715.41955566 1715.65087891 1714.49255371 1712.06005859 1712.23364258 1711.88256836 1709.6505127 1705.09631348 1705.25085449 1704.7623291 1704.93139648 1705.08203125 1704.31396484 1705.11242676 1708.30871582 1707.67871094 1705.15454102 1704.67041016 1704.65197754 1710 1707.25109863 1704.64221191 1705.48120117 1708.16308594 1710 1717.59082031 1725.15979004 1732.57629395 1745.33911133 1755.45959473 1765.07092285 1757.65588379 1753.59973145 1753.74963379 1751.57836914 1748.69824219 1745.43884277 1744.50939941 1744.02893066 1741.66662598 1737.9979248 1732.02832031 1726.96289062 1724.00219727 1719.02575684 1715.80883789 1711.65734863 1705.79553223 1701.44360352 1694.45507812 1684.96862793 1678.04882812 1670 1661.98449707 1660 1658.41845703 1650 1648.27832031 1646.94262695 1642.47021484 1642.55908203 1662.54516602 1655.15661621 1631.40185547 1602.44909668 1615.08435059 1640 1657.60437012 1662.39929199 1632.60461426 1606.31604004 1582.39978027 1568.12976074 1562.68859863 1560 1555.06567383 1545.14331055 1538.30834961 1532.0279541 1524.35754395 1516.13256836 1510 1504.3548584 1495.55737305 1489.61682129 1481.9197998 1475.0045166 1465.25561523 1457.66442871 1450.07080078 1442.48059082 1435.4543457 1428.17529297 1422.2199707 1412.83728027 1407.99584961 1402.27111816 1397.64782715 1392.24316406 1390.0892334 1384.87805176 1378.49194336 1374.90002441 1371.88049316 1368.19140625 1364.33496094 1361.6015625 1351.40490723 1348.26574707 1345.38708496
1195.43994141 1198.17382812 1202.26928711 1208.06884766 1215.31774902 1224.45129395 1230.51965332 1240 1238.4041748 1238.17871094 1235.28942871 1237.36633301 1240 1242.14196777 1247.74182129 1257.43054199 1258.59094238 1267.84448242 1277.77026367 1287.61694336 1292.44580078 1310 1320.06054688 1327.30224609 1335.47216797 1336.19812012 1338.49780273 1345.12780762 1354.95654297 1362.36437988 1369.27368164 1375.60400391 1381.70385742 1386.21057129 1391.90600586 1397.95300293 1402.02416992 1404.9855957 1408.26757812 1411.87902832 1417.53405762 1420 1430 1430 1435.00195312 1444.47741699 1453.8425293 1460.4576416 1470 1470 1470 1474.62231445 1484.21264648 1496.85778809 1512.24377441 1522.35107422 1530.6965332 1535.56445312 1535.12475586 1534.95385742 1537.74255371 1545.16674805 1550 1555.60864258 1565.23376465 1574.19274902 1580.43200684 1587.69958496 1595.11315918 1600 1604.30517578 1608.69177246 1612.04345703 1617.66943359 1620 1625.71508789 1632.04333496 1637.94909668 1642.09814453 1648.00720215 1651.53942871 1654.87268066 1654.57702637 1655.27758789 1655.89746094 1661.49182129 1665.16333008 1662.17150879 1661.06542969 1665.00476074 1670.13928223 1677.43359375 1690.36230469 1704.64355469 1702.40771484 1697.43164062 1697.85180664 1707.17553711 1715.484375 1724.17370605 1721.59594727 1714.98388672 1707.68798828 1702.23095703 1700 1715.01416016 1737.76672363 1764.30822754 1787.47058105 1792.40100098 1789.5949707 1777.46020508 1760.01000977 1739.95288086 1715.30932617 1711.89904785 1707.69628906 1705.49255371 1705.28796387 1697.82214355 1698.19165039 1702.41503906 1702.32824707 1698.45849609 1698.41906738 1697.84204102 1696.22790527 1696.46337891 1695.52514648 1698.4251709 1700 1698.34436035 1697.60559082 1697.38793945 1695.28796387 1695.16394043 1702.21691895 1698.03344727 1694.84118652 1697.64794922 1702.14550781 1704.88354492 1707.79345703 1705.36120605 1715.12084961 1737.86730957 1745.40246582 1744.92285156 1752.18603516 1750 1747.94262695 1745.44897461 1740.48950195 1740 1740 1740 1737.80249023 1731.06567383 1729.51794434 1725.44226074 1721.49536133 1718.21655273 1714.22021484 1710.95922852 1704.78186035 1698.2388916 1692.08728027 1685.49658203 1675.72155762 1670 1661.68029785 1658.04919434 1653.92675781 1651.44262695 1646.38671875 1643.22961426 1637.73693848 1631.73059082 1647.10644531 1649.91589355 1625.50378418 1594.60620117 1599.97302246 1614.93347168 1630.17443848 1635.05102539 1617.54064941 1594.87939453 1573.01428223 1558.44946289 1558.24487305 1555.36096191 1550.33361816 1542.22216797 1532.55761719 1527.77539062 1522.12341309 1515.13781738 1507.89440918 1500.04919434 1492.265625 1485.59777832 1477.75842285 1468.14282227 1462.50390625 1452.40527344 1442.40710449 1435.77880859 1428.57910156 1424.63757324 1417.64807129 1408.38366699 1404.14123535 1397.83825684 1391.87036133 1388.1229248 1382.53833008 1381.40490723 1375.3223877 1368.43334961 1367.29919434 1361.85510254 1355.14807129 1348.34472656 1344.76635742 1342.01672363 1341.14465332
1190 1194.94384766 1200 1204.81811523 1212.64953613 1217.96728516 1225.1472168 1231.09973145 1234.14611816 1231.87597656 1231.14746094 1232.0090332 1235.55859375 1237.25732422 1242.52282715 1251.49914551 1252.74523926 1260.1151123 1269.85058594 1277.46765137 1288.02392578 1304.71630859 1310 1322.33044434 1328.31323242 1331.7677002 1336.94958496 1342.5715332 1351.92248535 1358.00170898 1368.02502441 1372.02941895 1378.18505859 1382.54431152 1390 1392.37475586 1395.19958496 1397.97851562 1402.5447998 1407.75244141 1410 1417.9005127 1424.9798584 1427.46313477 1434.38256836 1444.77453613 1451.4543457 1457.56347656 1462.35681152 1465.78039551 1468.45056152 1476.28955078 1484.00964355 1504.92797852 1514.56799316 1520.63720703 1525.1237793 1525.85180664 1524.78295898 1528.25061035 1532.34741211 1537.91845703 1547.13891602 1554.75427246 1561.72814941 1571.6697998 1577.24597168 1584.45703125 1591.81958008 1597.90893555 1601.43395996 1604.45117188 1607.60046387 1612.16088867 1617.96435547 1622.37548828 1628.52734375 1632.61376953 1638.60241699 1642.16552734 1645.73132324 1646.19433594 1647.48291016 1645.72583008 1651.60961914 1654.66174316 1660 1657.83227539 1655.52905273 1654.82299805 1658.31994629 1667.47302246 1674.68591309 1685.33496094 1685.59240723 1684.83703613 1687.88171387 1695.28564453 1707.19482422 1720 1720 1710.11572266 1700.04626465 1695.29003906 1695.41577148 1704.89343262 1730.01184082 1745.05004883 1767.34521484 1770.23535156 1762.91003418 1754.56945801 1747.32214355 1727.13842773 1709.69287109 1704.15356445 1699.81396484 1695.34777832 1695.38464355 1691.89868164 1692.04443359 1694.59667969 1700 1697.31567383 1694.03820801 1692.10192871 1691.63183594 1691.61975098 1690 1692.27392578 1694.28027344 1691.84863281 1687.78320312 1684.9251709 1685.69140625 1688.02478027 1691.84118652 1691.83959961 1687.49072266 1685.48962402 1694.86181641 1694.97351074 1698.09289551 1700 1717.25891113 1732.08300781 1736.95397949 1742.4510498 1757.50720215 1752.4621582 1741.9642334 1735.33337402 1734.14892578 1734.36071777 1734.49914551 1734.64526367 1730.33776855 1724.66882324 1724.14697266 1721.55236816 1718.95654297 1715.01074219 1711.2331543 1708.20568848 1702.03198242 1695.02954102 1688.09338379 1682.47290039 1675.59118652 1670 1662.17578125 1655.64160156 1650 1650 1646.39208984 1641.57714844 1637.8392334 1630 1625.09692383 1634.98925781 1614.99694824 1592.11535645 1584.45849609 1590.01635742 1600.30725098 1602.52514648 1597.39782715 1579.91625977 1557.7286377 1554.13684082 1551.84350586 1551.42382812 1545.1484375 1538.1628418 1530 1524.35681152 1518.22058105 1512.19604492 1505.77844238 1495.33459473 1488.29516602 1483.75463867 1475.43676758 1465.74816895 1458.16918945 1447.63806152 1438.27807617 1434.3605957 1426.03918457 1421.68762207 1414.41467285 1406.08508301 1403.21386719 1394.83508301 1388.00927734 1381.93994141 1378.07189941 1372.12817383 1368.53344727 1362.96594238 1358.13427734 1354.73486328 1350.97521973 1345.09899902 1340 1334.48535156 1334.24523926
1188.41174316 1192.32373047 1198.1472168 1205.22229004 1210 1214.42883301 1221.7166748 1225.25183105 1225.94567871 1224.75097656 1224.76879883 1225.82995605 1230 1234.3972168 1240 1250 1251.87927246 1257.42590332 1262.36901855 1271.67529297 1280 1294.65515137 1312.18200684 1317.65808105 1321.86047363 1327.23083496 1331.99304199 1340 1347.48461914 1352.53979492 1360 1368.40161133 1372.54284668 1378.19287109 1384.55297852 1385.81018066 1388.46875 1392.24597168 1397.95446777 1400 1405.11206055 1410 1415.04711914 1422.41137695 1434.93615723 1442.04504395 1445.85888672 1450.29125977 1457.24291992 1460.29797363 1465.61694336 1475.93701172 1488.15600586 1503.28540039 1512.22607422 1515.32104492 1517.98364258 1515.65441895 1517.91564941 1525.26196289 1530 1532.71533203 1542.61547852 1551.90258789 1560 1567.97741699 1572.28674316 1578.16442871 1585.83728027 1591.87756348 1594.89147949 1598.02514648 1602.46386719 1607.88586426 1614.24023438 1619.98266602 1625.53796387 1631.37854004 1634.66540527 1638.0826416 1640 1641.88806152 1641.71582031 1640 1642.15307617 1648.0802002 1655.21386719 1652.32885742 1650 1650 1652.4666748 1662.08447266 1671.95019531 1674.85949707 1677.51538086 1677.80847168 1684.24438477 1695.31311035 1704.99584961 1715.64013672 1715.69750977 1703.2557373 1688.33935547 1688.2388916 1690 1692.56262207 1708.54101562 1727.01037598 1747.4161377 1749.96569824 1735.17358398 1729.8782959 1724.87133789 1710.45324707 1694.74108887 1694.66943359 1690.26428223 1685.49816895 1686.3203125 1685.3046875 1685.29699707 1687.74499512 1690 1690 1684.84777832 1685.39624023 1685.99645996 1685.7989502 1684.38378906 1690 1687.93408203 1682.42834473 1677.72229004 1677.68261719 1680 1678.24279785 1678.03955078 1677.86157227 1677.40393066 1678.03527832 1682.42700195 1688.04833984 1692.5982666 1694.80053711 1707.5222168 1724.85290527 1734.7097168 1749.80981445 1760 1746.77490234 1730.25195312 1724.85595703 1724.90734863 1725.27441406 1725.17773438 1724.9453125 1721.88366699 1720 1718.26696777 1716.00964355 1715.15820312 1711.70019531 1708.88110352 1704.83361816 1701.21862793 1694.55554199 1682.45373535 1677.73144531 1671.77441406 1664.81591797 1660 1654.63464355 1650 1646.77893066 1641.85827637 1638.78015137 1632.83166504 1630 1620 1617.4083252 1605.08508301 1589.72241211 1580 1574.37536621 1577.34448242 1579.95336914 1574.92175293 1560.49780273 1548.10742188 1544.83984375 1545.29516602 1547.62109375 1540 1534.95556641 1530 1522.16186523 1515.45568848 1511.44787598 1505.02038574 1494.76611328 1486.41125488 1481.77392578 1472.1027832 1464.47241211 1454.80273438 1447.5480957 1436.09753418 1433.72607422 1424.84631348 1420 1414.01000977 1406.2701416 1401.47424316 1394.84228516 1385.21679688 1380 1374.27197266 1368.72729492 1364.66064453 1358.84912109 1354.62133789 1348.8572998 1347.81896973 1341.88562012 1337.92626953 1330 1327.62268066
